# .PCD v0.7 - Point Cloud Data file format
VERSION 0.7
FIELDS x y z rgb
SIZE 4 4 4 4
TYPE F F F F
COUNT 1 1 1 1
WIDTH 999
HEIGHT 1
VIEWPOINT 0 0 0 1 0 0 0
POINTS 999
DATA ascii
-0.074758768 0.65378326 0.45304862 4.1491481e-39
-0.074155048 0.65375662 0.4532114 4.2417038e-39
-0.073551334 0.65372992 0.45337415 4.1495082e-39
-0.072947614 0.65370327 0.4535369 4.2417038e-39
-0.072343893 0.65367657 0.45369965 4.4260951e-39
-0.071740173 0.65364993 0.4538624 4.4260951e-39
-0.07110849 0.6546163 0.45382217 4.6104863e-39
-0.070503213 0.65458959 0.45398533 4.4260923e-39
-0.069897942 0.65456283 0.45414853 4.7026792e-39
-0.069292665 0.65453613 0.4543117 4.8874264e-39
-0.068653204 0.65550214 0.45427355 4.979622e-39
-0.068046369 0.65547538 0.45443717 5.0718176e-39
-0.067402236 0.65644121 0.45440027 5.0718176e-39
-0.066793852 0.65641433 0.4545643 5.0718176e-39
-0.066185459 0.65638751 0.45472831 5.0718176e-39
-0.065535106 0.65735304 0.45469311 5.0718176e-39
-0.064925164 0.6573261 0.45485756 5.0718176e-39
-0.064315222 0.65729916 0.45502198 5.0728966e-39
-0.06365864 0.65826452 0.45498845 5.0728966e-39
-0.063047141 0.65823746 0.45515332 5.0728966e-39
-0.062435642 0.65821046 0.45531815 4.8885054e-39
-0.061824143 0.65818346 0.45548302 5.0718176e-39
-0.061159782 0.6591484 0.45545161 5.2562089e-39
-0.060546726 0.65912133 0.45561686 5.5324356e-39
-0.059933674 0.65909427 0.45578215 5.44024e-39
-0.059263088 0.66005898 0.4557524 5.3484045e-39
-0.058589395 0.6610235 0.45572349 5.5327958e-39
-0.057973228 0.66099626 0.45588961 5.5327958e-39
-0.057294864 0.66196066 0.45586196 5.4406001e-39
-0.05667714 0.66193336 0.45602849 5.4402442e-39
-0.056059416 0.66190606 0.45619503 5.6246355e-39
-0.055374831 0.66287011 0.45616907 5.6246355e-39
-0.05475555 0.66284275 0.45633599 5.993418e-39
-0.054066297 0.66380662 0.45631129 5.993418e-39
-0.053445462 0.6637792 0.45647866 6.0856136e-39
-0.052751537 0.66474289 0.4564552 5.993418e-39
-0.052129146 0.66471535 0.45662299 6.1778093e-39
-0.051506754 0.66468787 0.45679078 6.6387832e-39
-0.050806608 0.66565126 0.45676902 6.6387832e-39
-0.050182663 0.66562372 0.45693722 7.0986795e-39
-0.049558714 0.66559613 0.45710543 7.2830708e-39
-0.048852343 0.66655928 0.45708534 7.9287961e-39
-0.048226841 0.66653162 0.45725396 7.8366005e-39
-0.047601338 0.66650403 0.45742258 8.2975787e-39
-0.046975832 0.66647637 0.45759121 8.3897743e-39
-0.046261683 0.6674391 0.45757324 8.3897743e-39
-0.045634624 0.66741145 0.45774227 8.4819699e-39
-0.045007564 0.66738373 0.45791131 8.3897743e-39
-0.04428719 0.66834623 0.45789501 8.5741656e-39
-0.043658573 0.66831845 0.45806447 8.3897743e-39
-0.042933535 0.66928071 0.45804942 7.7444049e-39
-0.042205378 0.67024285 0.4580352 7.3756224e-39
-0.041573651 0.67021495 0.45820549 7.2834267e-39
-0.040840827 0.67117691 0.45819253 7.0075629e-39
-0.040207546 0.67114896 0.45836326 6.730976e-39
-0.039470054 0.67211068 0.45835155 6.5469477e-39
-0.038729452 0.67307228 0.45834067 6.2703608e-39
-0.038093057 0.67304415 0.45851225 6.3625564e-39
-0.037347786 0.67400551 0.45850265 6.0859696e-39
-0.036599405 0.67496681 0.45849389 6.1781652e-39
-0.03584791 0.67592788 0.45848596 6.0859696e-39
-0.035206851 0.67589957 0.45865878 6.1781652e-39
-0.034450687 0.67686045 0.45865211 5.9937739e-39
-0.033691414 0.67782128 0.45864627 5.9937739e-39
-0.032929026 0.67878187 0.45864129 5.9937739e-39
-0.032163527 0.6797424 0.45863712 6.0859696e-39
-0.031394918 0.68070275 0.45863381 5.9937739e-39
-0.030623194 0.68166298 0.45863134 5.9015783e-39
-0.029848361 0.68262303 0.4586297 5.9937739e-39
-0.029070416 0.68358296 0.45862892 6.0859696e-39
-0.028416906 0.68355411 0.45880508 6.1781652e-39
-0.027634289 0.68451387 0.45880556 6.0859696e-39
-0.026979223 0.6844849 0.45898214 6.0859696e-39
-0.026191942 0.68544441 0.45898387 6.0856136e-39
-0.025535321 0.68541545 0.45916089 6.3622005e-39
-0.024743369 0.68637478 0.45916387 6.5465918e-39
-0.02408519 0.6863457 0.45934129 6.5465918e-39
-0.023427011 0.68631661 0.45951873 6.9153701e-39
-0.02262884 0.68727565 0.45952338 8.3905002e-39
-0.021969104 0.6872465 0.45970124 7.3763552e-39
-0.021166261 0.68820536 0.45970714 7.4685509e-39
-0.012532727 0.73753917 0.45150873 7.7483916e-39
-0.011793637 0.73750657 0.45170799 6.9204456e-39
-0.011203877 0.7364862 0.45207748 6.1828806e-39
-0.010768118 0.73447835 0.45261601 8.7654526e-39
-0.010338584 0.73247075 0.45315284 1.8906972e-38
-0.0099152718 0.73046345 0.453688 2.1673176e-38
0.0061837574 0.78145611 0.44708112 8.7564058e-39
0.0069928668 0.78142041 0.44729924 8.203232e-39
0.0076293051 0.78039801 0.44768134 8.2032292e-39
0.0084368577 0.78036231 0.44789901 8.2032292e-39
0.0090686316 0.77934015 0.44827986 8.1110336e-39
0.0098746251 0.7793045 0.44849715 8.018838e-39
0.010501731 0.77828252 0.44887671 7.6500555e-39
0.011306172 0.778247 0.44909358 7.9266423e-39
0.012110613 0.77821147 0.44931045 7.8344467e-39
0.012731482 0.77718973 0.44968835 7.6500555e-39
0.013719492 0.77814043 0.44974416 7.1901563e-39
0.014337249 0.7771188 0.45012122 7.0979607e-39
0.015328375 0.77806938 0.45017791 7.190878e-39
0.016132813 0.77803385 0.45039475 7.190878e-39
0.016937254 0.77799833 0.45061162 6.9142911e-39
0.017741695 0.77796274 0.45082849 7.0064867e-39
0.020550143 0.7798273 0.45116457 6.6377042e-39
0.021357697 0.77979165 0.45138228 6.6377042e-39
0.016814718 0.69647086 0.46784106 6.4533129e-39
0.017491568 0.69644094 0.46802351 6.4533129e-39
0.01816842 0.69641107 0.46820599 6.6377042e-39
0.018845269 0.69638115 0.46838844 6.8220955e-39
0.019522123 0.69635129 0.46857092 6.5455086e-39
0.020198973 0.69632137 0.4687534 6.9142911e-39
0.020875823 0.69629151 0.46893585 6.8220955e-39
0.021552673 0.69626158 0.46911833 6.6377042e-39
0.022229522 0.69623172 0.46930078 6.6377042e-39
0.022906372 0.6962018 0.46948326 6.4543919e-39
0.023340529 0.69518828 0.46981081 6.3621963e-39
0.02401582 0.69515848 0.46999288 6.4543919e-39
0.024691116 0.69512868 0.47017491 6.2700007e-39
0.025119053 0.69411546 0.4705008 6.2700007e-39
0.025792791 0.69408572 0.47068244 6.4543919e-39
0.02646653 0.69405597 0.47086406 6.2703608e-39
0.026888249 0.69304305 0.47118825 6.1781652e-39
0.027560428 0.69301337 0.47136948 6.2700049e-39
0.028232614 0.69298363 0.47155067 6.2700049e-39
0.028904798 0.69295394 0.4717319 6.1778093e-39
0.029318724 0.69194138 0.472054 6.0856136e-39
0.029989349 0.69191176 0.47223479 6.0856136e-39
0.030659975 0.69188213 0.47241557 6.2700049e-39
0.0313306 0.69185251 0.47259638 6.2700049e-39
0.032001227 0.69182289 0.47277716 6.0856136e-39
0.032405827 0.69081074 0.47309676 6.2703608e-39
0.033074901 0.69078118 0.47327712 6.0859696e-39
0.033743966 0.69075161 0.47345749 6.0859696e-39
0.03441304 0.69072205 0.47363785 6.2703608e-39
0.035082113 0.69069254 0.47381824 6.4543919e-39
0.035477366 0.68968076 0.47413531 6.3621963e-39
0.036144882 0.68965125 0.47431526 6.4543919e-39
0.036812395 0.68962175 0.4744952 6.4543919e-39
0.037479907 0.6895923 0.47467515 6.3621963e-39
0.038533356 0.68855149 0.47516966 5.9023014e-39
0.039199311 0.68852204 0.47534919 5.8101057e-39
0.03986527 0.68849266 0.47552872 5.8101057e-39
0.040531226 0.68846321 0.47570825 5.8101057e-39
0.041197188 0.68843383 0.47588778 5.7179101e-39
0.041863147 0.68840438 0.47606733 5.7179101e-39
0.042238176 0.68739349 0.47637895 5.7179129e-39
0.042902578 0.68736416 0.47655806 5.8101085e-39
0.043566979 0.68733484 0.47673717 5.7179129e-39
0.044231381 0.68730545 0.47691628 5.9944998e-39
0.044895783 0.68727612 0.4770954 5.994497e-39
0.045560185 0.6872468 0.47727451 5.994497e-39
0.046224587 0.68721741 0.47745362 6.3622005e-39
0.046888988 0.68718809 0.47763273 6.5465918e-39
0.047250025 0.68617785 0.47794056 6.1778093e-39
0.04791287 0.68614858 0.47811925 6.0856136e-39
0.048575718 0.68611932 0.47829795 6.1778121e-39
0.049238559 0.68609005 0.47847664 6.3622033e-39
0.049901407 0.68606073 0.47865534 6.3622005e-39
0.050564259 0.68603146 0.47883403 6.6387874e-39
0.0512271 0.68600219 0.47901273 6.3632795e-39
0.051575691 0.68499249 0.47931722 6.6398664e-39
0.052236978 0.68496329 0.4794955 6.3632795e-39
0.052898269 0.68493408 0.47967377 6.1788883e-39
0.053240623 0.68392467 0.47997656 6.3632795e-39
0.053900354 0.68389553 0.48015442 6.4554751e-39
0.054560091 0.68386638 0.48033229 6.6398664e-39
0.054896224 0.68285722 0.48063341 6.8242577e-39
0.055554401 0.68282819 0.48081085 7.1930402e-39
0.056212585 0.6827991 0.48098829 7.1930402e-39
0.056870766 0.68277001 0.48116571 7.3777874e-39
0.057199113 0.68176121 0.48146477 7.469983e-39
0.057855729 0.68173224 0.48164177 7.3777874e-39
0.058512356 0.68170321 0.4818188 7.469983e-39
0.05916898 0.68167418 0.48199582 7.1933961e-39
0.059825599 0.68164521 0.48217282 7.1012005e-39
0.060144626 0.68063682 0.48246935 8.3919365e-39
0.060799692 0.68060791 0.48264593 7.4699802e-39
0.061454758 0.68057895 0.48282254 7.1933933e-39
0.062109824 0.68055004 0.48299912 7.1933933e-39
0.06276489 0.68052107 0.48317572 7.4689012e-39
0.063419953 0.68049216 0.4833523 7.5610968e-39
0.064075015 0.68046325 0.48352891 7.4685439e-39
0.064730093 0.68043429 0.48370552 7.5607395e-39
0.065385155 0.68040538 0.4838821 7.2845127e-39
0.066040225 0.68037641 0.48405871 8.1142734e-39
0.066342123 0.67936879 0.48435062 8.75964e-39
0.066995628 0.67933989 0.48452678 8.1142706e-39
0.067649141 0.67931104 0.48470294 8.022075e-39
0.068302654 0.67928219 0.48487914 8.1142706e-39
0.068956159 0.67925334 0.4850553 7.1012005e-39
0.069609672 0.67922443 0.48523149 6.9168092e-39
0.069900684 0.67821729 0.48552045 6.9164533e-39
0.07055264 0.6781885 0.4856962 6.8242577e-39
0.071204595 0.67815971 0.48587197 6.6409482e-39
0.071856551 0.67813092 0.48604771 6.9175351e-39
0.072508506 0.67810214 0.48622349 7.0097307e-39
0.073160455 0.67807335 0.48639923 7.1019264e-39
0.073440582 0.67706668 0.48668528 7.4696299e-39
0.07409098 0.67703795 0.4868606 7.4696299e-39
0.074741378 0.67700922 0.48703593 7.4696299e-39
0.075391777 0.6769805 0.48721129 7.5618255e-39
0.07566411 0.67597413 0.48749521 8.0228037e-39
0.076312959 0.67594546 0.48767012 7.7462168e-39
0.0769618 0.67591685 0.48784506 7.5618255e-39
0.077610642 0.67588818 0.48801997 7.8384124e-39
0.078259483 0.67585951 0.48819488 8.0228037e-39
0.078908332 0.67583084 0.48836979 7.930608e-39
0.079557166 0.67580217 0.48854473 7.930608e-39
0.080206014 0.67577356 0.48871964 7.930608e-39
0.080854848 0.67574489 0.48889455 7.930608e-39
0.081111632 0.67473924 0.48917431 8.0228037e-39
0.081758931 0.67471063 0.4893488 8.1149993e-39
0.082406208 0.67468208 0.48952329 8.1149993e-39
0.083053492 0.67465347 0.48969778 8.2071949e-39
0.083700791 0.67462486 0.48987228 8.3915862e-39
0.08394821 0.67361963 0.49014953 8.3004695e-39
0.084593944 0.67359114 0.4903236 8.4848608e-39
0.085239671 0.67356259 0.49049768 8.4848608e-39
0.085885413 0.6735341 0.49067175 8.4848608e-39
0.086531147 0.67350554 0.49084583 8.4837818e-39
0.086769246 0.67250073 0.49112055 8.8525643e-39
0.087413423 0.6724723 0.49129421 9.3124607e-39
0.0880576 0.67244387 0.49146786 9.5890476e-39
0.088701777 0.67241538 0.49164152 1.0050026e-38
0.088932097 0.67141092 0.49191412 9.8656344e-39
0.089574717 0.67138249 0.49208736 1.0234417e-38
0.09021733 0.67135412 0.49226061 1.0142221e-38
0.090859957 0.67132574 0.49243385 1.0234417e-38
0.091502562 0.67129737 0.49260709 1.0234417e-38
0.09214519 0.671269 0.49278033 1.0879426e-38
0.092364632 0.67026502 0.49305001 1.0971622e-38
0.093005687 0.67023671 0.49322283 1.1156729e-38
0.093646757 0.67020839 0.49339563 1.134112e-38
0.09428782 0.67018008 0.49356845 1.134112e-38
0.094928876 0.67015177 0.49374127 1.1617707e-38
0.095569946 0.6701234 0.4939141 1.1894291e-38
0.096211009 0.67009509 0.49408692 1.2170878e-38
0.096852064 0.67006677 0.49425974 1.2631856e-38
0.097493134 0.67003846 0.49443257 1.2447465e-38
0.09813419 0.67001015 0.49460539 1.3000279e-38
0.098775268 0.66998184 0.49477822 1.2908083e-38
0.099416323 0.66995353 0.49495101 1.3183591e-38
0.10005738 0.66992521 0.49512383 1.3367982e-38
0.10069845 0.6698969 0.49529666 1.3552011e-38
0.10133951 0.66986859 0.49546948 1.3828598e-38
0.10198057 0.66984028 0.4956423 1.4105182e-38
0.10262164 0.66981196 0.49581513 1.4381769e-38
0.10326269 0.66978365 0.49598795 1.456616e-38
0.10390376 0.66975534 0.49616078 1.456616e-38
0.10409208 0.66875273 0.49642205 1.5119334e-38
0.1047316 0.66872448 0.49659446 1.5211529e-38
0.1053711 0.66869622 0.49676684 1.5671428e-38
0.10601061 0.66866797 0.49693924 1.5671428e-38
0.10665011 0.66863972 0.49711165 1.5578514e-38
0.10682908 0.66763753 0.49737042 1.5578514e-38
0.10746704 0.66760933 0.49754241 1.585582e-38
0.10810497 0.66758114 0.49771437 1.5487037e-38
0.10874293 0.66755301 0.49788636 1.5764703e-38
0.10938089 0.66752481 0.49805835 1.5672507e-38
0.11001883 0.66749662 0.49823031 1.5673229e-38
0.11065679 0.66746849 0.4984023 1.5581033e-38
0.11176617 0.66841376 0.49849087 1.5581031e-38
0.11240567 0.66838557 0.49866325 1.5488835e-38
0.11304518 0.66835731 0.49883565 1.5581031e-38
0.11416076 0.66930228 0.49892589 1.5673226e-38
0.11480183 0.66927397 0.49909872 1.5672505e-38
0.11544289 0.66924566 0.49927154 1.5303722e-38
0.11608395 0.66921735 0.49944434 1.5211529e-38
0.11720733 0.67016202 0.49953666 1.5303725e-38
0.11784993 0.67013365 0.4997099 1.5580312e-38
0.11849256 0.67010528 0.49988315 1.5672507e-38
0.11913517 0.67007691 0.50005639 1.5580312e-38
0.11977779 0.67004848 0.50022966 1.5211529e-38
0.11993032 0.66904747 0.50048125 1.5303725e-38
0.1205714 0.66901916 0.5006541 1.5119334e-38
0.12121245 0.66899085 0.5008269 1.5394841e-38
0.12185351 0.66896254 0.50099975 1.5118255e-38
0.12199827 0.66796184 0.50124925 1.4749472e-38
0.12191287 0.66398841 0.50206834 1.3827519e-38
-0.1573309 0.65144068 0.43141416 4.516483e-39
-0.15673651 0.65141439 0.43157437 4.7930699e-39
-0.15614213 0.65138817 0.43173462 4.9778171e-39
-0.15554774 0.65136188 0.43189484 4.7012302e-39
-0.15495336 0.65133566 0.43205509 3.9636652e-39
-0.15435898 0.65130937 0.43221533 3.9636652e-39
-0.1535767 0.65028059 0.43263841 3.7792739e-39
-0.15298387 0.65025443 0.43279821 4.1480565e-39
-0.15239105 0.65022826 0.43295804 3.9640281e-39
-0.15179822 0.6502021 0.43311784 3.9640281e-39
-0.15120539 0.65017587 0.43327767 3.9640281e-39
-0.15043244 0.64914751 0.43369824 3.7796369e-39
-0.14984116 0.64912134 0.43385762 3.9640281e-39
-0.1492499 0.64909524 0.43401703 3.7796369e-39
-0.14865862 0.64906913 0.43417642 3.6874412e-39
-0.14789346 0.64804113 0.43459487 3.7796369e-39
-0.14730375 0.64801508 0.43475387 3.5952456e-39
-0.14671403 0.64798903 0.43491283 3.6874412e-39
-0.1461243 0.64796299 0.43507183 3.6874412e-39
-0.14553459 0.64793694 0.43523079 3.4108543e-39
-0.14494488 0.64791089 0.43538979 3.5952456e-39
-0.14419059 0.64688331 0.43580532 3.4108543e-39
-0.14360245 0.64685732 0.43596387 3.3183056e-39
-0.14301428 0.64683133 0.43612242 3.4105012e-39
-0.14242612 0.64680541 0.436281 3.3183056e-39
-0.14183795 0.64677942 0.43643954 3.3183056e-39
-0.14124981 0.64675343 0.43659809 3.4105012e-39
-0.14066164 0.64672744 0.43675667 3.4105012e-39
-0.14007348 0.64670146 0.43691522 3.22611e-39
-0.13948533 0.64667547 0.43707377 3.3183056e-39
-0.13889717 0.64664954 0.43723235 3.0427977e-39
-0.13830902 0.64662355 0.43739089 3.0427977e-39
-0.13772085 0.64659756 0.43754944 3.0427977e-39
-0.13640019 0.64554501 0.43811765 2.9506021e-39
-0.13581359 0.64551908 0.43827578 2.9506021e-39
-0.13522699 0.64549321 0.43843395 2.7662108e-39
-0.1346404 0.64546728 0.43859208 3.0427977e-39
-0.13405378 0.64544135 0.43875021 3.1349933e-39
-0.13346718 0.64541543 0.43890834 3.0427977e-39
-0.13288057 0.64538956 0.4390665 2.8584064e-39
-0.13229397 0.64536363 0.43922463 2.8584064e-39
-0.13170737 0.6453377 0.43938276 2.8584064e-39
-0.13112077 0.64531183 0.43954089 2.8584064e-39
-0.13053416 0.6452859 0.43969905 2.7665709e-39
-0.12982033 0.64426011 0.44010368 2.8587666e-39
-0.1292353 0.6442343 0.44026139 2.7665709e-39
-0.12865025 0.64420843 0.44041911 2.9509622e-39
-0.1280652 0.64418262 0.44057682 3.0427977e-39
-0.12748015 0.64415675 0.44073454 3.0427977e-39
-0.1268951 0.64413095 0.44089228 2.8584064e-39
-0.12631005 0.64410508 0.44104999 2.8584064e-39
-0.125725 0.64407927 0.44120771 2.8584064e-39
-0.12513995 0.6440534 0.44136542 2.9506021e-39
-0.12455491 0.64402753 0.44152313 2.7662108e-39
-0.12396986 0.64400172 0.44168085 2.5818196e-39
-0.12338482 0.64397585 0.44183859 3.0427977e-39
-0.12279977 0.64395005 0.44199631 3.0427977e-39
-0.12221472 0.64392418 0.44215402 2.8587694e-39
-0.12162968 0.64389837 0.44231173 2.8587694e-39
-0.12104463 0.6438725 0.44246945 2.7665737e-39
-0.12045958 0.64384669 0.44262719 2.6743781e-39
-0.11987453 0.64382082 0.44278491 2.4899869e-39
-0.11928949 0.64379501 0.44294262 2.6743781e-39
-0.11870444 0.64376915 0.44310033 2.7665737e-39
-0.11811939 0.64374334 0.44325805 3.3197475e-39
-0.11753434 0.64371747 0.44341579 3.1353563e-39
-0.1169493 0.64369166 0.4435735 2.8587694e-39
-0.11636425 0.64366579 0.44373122 2.4899869e-39
-0.1157792 0.64363992 0.44388893 2.6743781e-39
-0.11519415 0.64361411 0.44404665 2.6743809e-39
-0.11460911 0.64358824 0.44420436 2.4899897e-39
-0.11402406 0.64356244 0.4443621 2.4899897e-39
-0.11343901 0.64353657 0.44451982 2.6743809e-39
-0.11293606 0.64450866 0.44444323 2.6743809e-39
-0.11234946 0.64448273 0.44460136 2.6743809e-39
-0.11176284 0.6444568 0.44475949 2.4899897e-39
-0.11117624 0.64443088 0.44491762 2.4899897e-39
-0.11058964 0.64440501 0.44507578 2.4899897e-39
-0.11000304 0.64437908 0.44523391 2.4899897e-39
-0.10941643 0.64435315 0.44539204 2.4899897e-39
-0.10882983 0.64432728 0.44555017 2.7665766e-39
-0.10824323 0.64430135 0.44570833 2.6743809e-39
-0.10765663 0.64427543 0.44586647 2.6743809e-39
-0.10707002 0.64424956 0.4460246 2.6743809e-39
-0.10648342 0.64422363 0.44618273 2.6743809e-39
-0.10589682 0.6441977 0.44634089 2.6743809e-39
-0.10531021 0.64417183 0.44649902 2.6743809e-39
-0.10472361 0.64414591 0.44665715 2.7665766e-39
-0.104137 0.64411998 0.44681528 2.8587722e-39
-0.1035504 0.64409411 0.44697344 2.7665766e-39
-0.1029638 0.64406818 0.44713157 2.8587722e-39
-0.10243128 0.6450389 0.44706294 2.8587722e-39
-0.10184312 0.64501292 0.44722152 2.6743809e-39
-0.10125496 0.64498693 0.44738007 2.8587722e-39
-0.10066681 0.64496094 0.44753861 2.8587722e-39
-0.10007864 0.64493495 0.44769719 2.7665766e-39
-0.099490486 0.64490902 0.44785574 2.6743809e-39
-0.098902322 0.64488304 0.44801429 2.8587722e-39
-0.098314166 0.64485705 0.44817287 2.9509678e-39
-0.097726002 0.64483106 0.44833142 3.1353591e-39
-0.097137846 0.64480507 0.44848996 3.0431634e-39
-0.096549682 0.64477909 0.44864854 2.9509678e-39
-0.095961526 0.64475316 0.44880709 3.1353591e-39
-0.09537337 0.64472717 0.44896564 3.0431634e-39
-0.094819069 0.64569694 0.44890288 2.9509678e-39
-0.094229348 0.64567089 0.44906187 3.0431634e-39
-0.093639635 0.64564484 0.44922084 2.8587722e-39
-0.093049921 0.6456188 0.44937983 2.9509678e-39
-0.092487834 0.64658821 0.44931915 2.8587722e-39
-0.091896564 0.6465621 0.44947857 3.1353591e-39
-0.091305293 0.64653593 0.44963795 3.0431634e-39
-0.090736985 0.6475051 0.44957897 3.1353591e-39
-0.090144157 0.64747894 0.4497388 3.0431634e-39
-0.08955133 0.64745277 0.4498986 3.3197475e-39
-0.088976808 0.64842159 0.44984132 3.4119432e-39
-0.088382423 0.64839536 0.45000154 3.0431606e-39
-0.087788038 0.64836907 0.45016178 3.3197475e-39
-0.087207288 0.64933765 0.45010617 3.4119432e-39
-0.086611345 0.64931136 0.45026681 3.5041388e-39
-0.086015403 0.64928502 0.45042747 3.5041388e-39
-0.085419469 0.64925873 0.45058814 3.5041388e-39
-0.084823534 0.64923239 0.45074877 3.5041388e-39
-0.084227592 0.64920604 0.45090944 3.68853e-39
-0.08363165 0.64917976 0.4510701 3.68853e-39
-0.083035707 0.64915341 0.45123076 3.5963344e-39
-0.082439773 0.64912713 0.4513914 3.68853e-39
-0.081843458 0.65009505 0.45133996 3.68853e-39
-0.081245959 0.65006864 0.45150104 3.7807257e-39
-0.080648467 0.65004224 0.45166212 4.1495082e-39
-0.080050975 0.65001583 0.4518232 4.241701e-39
-0.079453476 0.64998949 0.45198429 4.6104835e-39
-0.078847826 0.65095693 0.45193535 4.7945147e-39
-0.078248776 0.65093046 0.45209685 4.702319e-39
-0.077638462 0.65189779 0.4520492 4.702319e-39
-0.077037856 0.65187126 0.45221111 4.4257322e-39
-0.076437242 0.65184474 0.45237303 4.3335365e-39
-0.075820707 0.65281171 0.45232704 4.2413409e-39
-0.075218543 0.65278512 0.45248938 4.2413437e-39
-0.07461638 0.65275854 0.45265171 4.1491481e-39
-0.073993616 0.65372527 0.45260742 4.1495082e-39
-0.073389895 0.65369862 0.45277017 4.1495082e-39
-0.072786175 0.65367192 0.45293292 4.3338995e-39
-0.072182454 0.65364528 0.45309567 4.3338995e-39
-0.071578741 0.65361863 0.45325842 4.6104863e-39
-0.070946634 0.65458494 0.45321664 4.4260951e-39
-0.070341364 0.65455818 0.45337981 4.6104835e-39
-0.069736086 0.65453148 0.45354301 4.7948748e-39
-0.069130808 0.65450472 0.45370618 4.7952307e-39
-0.06849093 0.65547067 0.45366648 4.8874264e-39
-0.067884102 0.65544391 0.45383006 4.9792619e-39
-0.067277268 0.65541708 0.45399368 5.0714575e-39
-0.066631161 0.6563828 0.45395565 5.3480444e-39
-0.066022776 0.65635592 0.45411968 5.0714575e-39
-0.065414391 0.65632904 0.45428368 4.979622e-39
-0.064762063 0.65729445 0.45424736 5.0718176e-39
-0.064152122 0.65726751 0.45441177 4.8885054e-39
-0.06354218 0.65724057 0.45457622 5.0728966e-39
-0.062883623 0.65820575 0.45454156 4.7963097e-39
-0.062272128 0.65817875 0.4547064 4.7963097e-39
-0.061660625 0.65815175 0.45487127 4.9792661e-39
-0.06104913 0.65812474 0.4550361 5.4402442e-39
-0.060382795 0.65908957 0.45500356 5.4402442e-39
-0.059769742 0.65906245 0.45516884 5.4402442e-39
-0.059098739 0.66002709 0.45513752 5.4406001e-39
-0.05848413 0.65999991 0.45530322 5.3484045e-39
-0.057808463 0.66096431 0.45527318 5.2562089e-39
-0.057192296 0.66093713 0.4554393 5.3484045e-39
-0.056511957 0.6619013 0.45541051 5.4406001e-39
-0.055894237 0.66187406 0.45557705 5.5327958e-39
-0.055276513 0.66184676 0.45574358 5.5327958e-39
-0.054589953 0.66281062 0.45571646 5.6249914e-39
-0.053970676 0.66278332 0.45588341 5.7168311e-39
-0.053279448 0.66374701 0.45585757 5.7168311e-39
-0.052658614 0.66371959 0.45602494 5.993418e-39
-0.051962718 0.6646831 0.45600036 6.0856136e-39
-0.051340327 0.66465563 0.45616814 6.2700007e-39
-0.050717935 0.66462809 0.45633593 6.4543919e-39
-0.050015818 0.66559136 0.45631304 7.0064839e-39
-0.049391869 0.66556376 0.45648125 7.1908752e-39
-0.048767924 0.66553622 0.45664945 7.5600136e-39
-0.048059579 0.6664992 0.4566282 7.6522093e-39
-0.047434077 0.66647154 0.45679682 7.6522093e-39
-0.046808574 0.66644394 0.45696545 8.0209918e-39
-0.046094008 0.66740662 0.45694593 8.5734467e-39
-0.045466948 0.6673789 0.45711496 8.5734467e-39
-0.044839889 0.66735119 0.457284 8.9422292e-39
-0.044212829 0.66732353 0.45745304 9.1266205e-39
-0.043490481 0.66828585 0.45743558 8.0209918e-39
-0.042861868 0.66825807 0.45760506 7.7444049e-39
-0.042134851 0.66922021 0.45758885 7.8366005e-39
-0.041404728 0.67018217 0.4575735 7.3756224e-39
-0.040773001 0.67015427 0.45774382 7.1919542e-39
-0.040038206 0.67111611 0.45772973 6.8231717e-39
-0.039404921 0.6710881 0.45790043 6.6391433e-39
-0.038665459 0.6720497 0.45788759 6.5469477e-39
-0.037922885 0.67301112 0.45787561 6.3625564e-39
-0.03728649 0.67298305 0.45804715 6.1781652e-39
-0.036539249 0.67394429 0.45803642 6.2703608e-39
-0.035788894 0.67490536 0.4580265 6.0859696e-39
-0.035035428 0.67586631 0.45801744 6.0859696e-39
-0.034278847 0.67682713 0.45800921 5.9937739e-39
-0.033519156 0.67778784 0.45800182 5.9937739e-39
-0.032756358 0.67874837 0.4579953 5.9015783e-39
-0.031990439 0.67970884 0.45798957 6.0859696e-39
-0.031221416 0.68066907 0.45798472 5.9937739e-39
-0.030572573 0.6806404 0.45815963 5.717187e-39
-0.029674027 0.68258923 0.4579775 5.9937739e-39
-0.029022073 0.68256044 0.45815325 6.0859696e-39
-0.028242156 0.6835202 0.45815131 5.9937739e-39
-0.027588645 0.68349135 0.4583275 6.0859696e-39
-0.026804058 0.68445092 0.45832682 6.0859696e-39
-0.02601636 0.68541038 0.45832697 6.1778093e-39
-0.025359737 0.68538135 0.45850399 6.2700049e-39
-0.024703115 0.68535239 0.45868102 6.0856136e-39
-0.023909191 0.68631154 0.45868286 6.2700049e-39
-0.023251014 0.68628252 0.45886028 6.731339e-39
-0.022592835 0.68625343 0.45903772 6.731339e-39
-0.021792689 0.68721229 0.45904124 6.8231745e-39
-0.021132955 0.68718314 0.4592191 7.3763482e-39
-0.02032814 0.68814188 0.45922387 6.9175379e-39
0.0064001153 0.78141415 0.44627169 7.8355285e-39
0.0072092246 0.78137845 0.44648981 7.7433329e-39
0.0078452462 0.78035611 0.44687346 7.6511373e-39
0.0086527988 0.78032047 0.44709116 7.466746e-39
0.0094603524 0.78028476 0.44730884 7.3745476e-39
0.010090151 0.77926272 0.44769081 7.7433301e-39
0.010896148 0.77922714 0.4479081 7.0064839e-39
0.011702145 0.77919155 0.44812539 6.8220927e-39
0.012508143 0.77915591 0.44834265 6.6377042e-39
0.01313016 0.77813423 0.44872254 6.4533129e-39
0.013934601 0.7780987 0.44893941 6.4533129e-39
0.014739042 0.77806318 0.44915625 6.4533129e-39
0.015543483 0.77802765 0.44937313 6.4543919e-39
0.016347921 0.77799213 0.44959 6.4543919e-39
0.017344119 0.77894235 0.44964635 6.1774491e-39
0.018150117 0.7789067 0.44986364 6.3618404e-39
0.019762108 0.77883554 0.45029822 6.7309788e-39
0.020766083 0.77978539 0.45035669 7.0075629e-39
0.016768163 0.69545156 0.46731475 6.0859696e-39
0.017443458 0.6954217 0.46749681 5.9937739e-39
0.01811875 0.69539189 0.46767887 6.0859696e-39
0.018794045 0.69536209 0.46786091 6.2703608e-39
0.019469336 0.69533223 0.46804297 6.2703608e-39
0.020144632 0.69530243 0.468225 6.6384273e-39
0.02081993 0.69527256 0.46840706 6.454036e-39
0.021495221 0.69524276 0.4685891 6.4543919e-39
0.022170518 0.69521296 0.46877116 6.7309788e-39
0.022845808 0.6951831 0.46895319 6.7309788e-39
0.023278 0.69416976 0.46928191 6.3621963e-39
0.023951737 0.69414002 0.46946353 6.3625564e-39
0.024625476 0.69411027 0.46964514 6.0859696e-39
0.025051443 0.69309723 0.46997216 6.0856136e-39
0.025723629 0.69306755 0.47015339 6.1778093e-39
0.026144922 0.69205469 0.47047916 5.9012224e-39
0.026815549 0.69202507 0.47065994 5.9012224e-39
0.027486173 0.69199544 0.47084072 5.9012224e-39
0.0281568 0.69196582 0.47102153 5.993418e-39
0.028570319 0.69095331 0.47134519 6.0856136e-39
0.029239384 0.69092375 0.47152555 6.1778093e-39
0.029908458 0.69089425 0.47170591 6.0856164e-39
0.030577531 0.69086468 0.47188631 6.2700077e-39
0.031246597 0.69083512 0.47206667 6.3622005e-39
0.031915672 0.69080555 0.47224703 6.2700049e-39
0.032318294 0.68979353 0.47256777 6.2700049e-39
0.032985806 0.68976402 0.47274771 5.993418e-39
0.033653319 0.68973458 0.47292766 5.993418e-39
0.034320835 0.68970507 0.47310761 6.1778093e-39
0.034988347 0.68967557 0.47328758 6.0856136e-39
0.035381645 0.68866402 0.47360578 6.1778093e-39
0.036047596 0.68863457 0.47378531 6.1778093e-39
0.036713559 0.68860519 0.47396484 6.2700049e-39
0.037379514 0.68857574 0.47414437 6.2700049e-39
0.038045473 0.68854636 0.4743239 6.0856136e-39
0.038711436 0.68851691 0.47450343 5.993418e-39
0.039093822 0.68750578 0.47481871 6.0856136e-39
0.039758224 0.68747646 0.47499782 5.993418e-39
0.040422626 0.68744707 0.47517693 5.993418e-39
0.041087028 0.68741775 0.47535604 5.9012224e-39
0.041751429 0.68738842 0.47553515 5.993418e-39
0.042124502 0.6863777 0.4758479 5.9023014e-39
0.042787343 0.68634844 0.47602659 5.9023014e-39
0.043450192 0.68631911 0.47620529 5.8101057e-39
0.04411304 0.68628985 0.47638398 5.9023014e-39
0.044775885 0.68626058 0.47656268 5.994497e-39
0.045438733 0.68623132 0.47674137 6.1788883e-39
0.046101574 0.68620205 0.47692007 5.9023014e-39
0.046462197 0.68519187 0.47722948 5.994497e-39
0.047123484 0.68516266 0.47740775 5.9023042e-39
0.047784775 0.68513346 0.47758603 5.8101085e-39
0.048446063 0.68510425 0.47776428 6.0856164e-39
0.049107354 0.68507504 0.47794256 6.1778121e-39
0.049768645 0.68504584 0.47812083 6.2700077e-39
0.050429933 0.68501663 0.47829911 6.5465946e-39
0.050778098 0.68400699 0.47860515 6.3632823e-39
0.051437832 0.68397784 0.47878301 6.3632823e-39
0.052097563 0.6839487 0.47896087 6.1788911e-39
0.0527573 0.68391955 0.47913873 6.3632823e-39
0.053097691 0.68291032 0.47944269 6.3632795e-39
0.053755868 0.68288124 0.4796201 6.732062e-39
0.054414045 0.68285215 0.47979754 6.732062e-39
0.055072222 0.68282312 0.47997499 6.8242577e-39
0.055404827 0.68181413 0.48027682 6.6402223e-39
0.05606145 0.68178517 0.48045385 6.8246136e-39
0.05671807 0.68175614 0.48063084 7.1933933e-39
0.057374693 0.68172717 0.48080787 7.3777846e-39
0.057699524 0.6807186 0.48110762 7.4699802e-39
0.05835459 0.68068963 0.48128423 7.3777846e-39
0.059009653 0.68066072 0.48146081 7.4689012e-39
0.059664719 0.68063176 0.48163742 7.2845099e-39
0.060319792 0.68060285 0.481814 6.6391405e-39
0.060635276 0.67959464 0.48211125 7.007923e-39
0.061288781 0.67956579 0.48228741 7.4689012e-39
0.061942294 0.67953694 0.4824636 7.6532925e-39
0.062595807 0.67950809 0.48263976 8.8518356e-39
0.063249312 0.67947918 0.48281595 8.9440313e-39
0.063902825 0.67945033 0.48299211 7.7454881e-39
0.064556338 0.67942148 0.4831683 7.3767056e-39
0.065209843 0.67939258 0.48334447 7.1001215e-39
0.065863356 0.67936373 0.48352066 7.0079258e-39
0.066516869 0.67933488 0.48369682 7.0079258e-39
0.067170374 0.67930603 0.48387301 7.1001215e-39
0.067467205 0.67829865 0.48416522 7.1001215e-39
0.068119161 0.67826986 0.48434097 7.2845127e-39
0.068771109 0.67824107 0.48451671 6.9168092e-39
0.069423065 0.67821229 0.48469248 6.9168092e-39
0.07007502 0.6781835 0.48486823 6.8246136e-39
0.070726968 0.67815471 0.485044 7.1012005e-39
0.071012907 0.67714787 0.48533326 6.9175323e-39
0.071663305 0.67711914 0.48550859 7.0097279e-39
0.072313704 0.67709041 0.48568392 7.0097279e-39
0.072964102 0.67706168 0.48585927 7.6550973e-39
0.0736145 0.67703295 0.4860346 8.8514825e-39
0.074264899 0.67700422 0.48620993 8.2983087e-39
0.07453993 0.67599779 0.48649627 8.0217218e-39
0.075188771 0.67596912 0.48667121 8.1139175e-39
0.075837612 0.67594045 0.48684612 8.1149965e-39
0.076486461 0.67591184 0.48702103 8.0228008e-39
0.077135302 0.67588317 0.48719594 8.0228037e-39
0.077784143 0.6758545 0.48737088 8.2071949e-39
0.078048281 0.67484862 0.48765424 8.2071949e-39
0.07869558 0.67482001 0.48782876 8.1149993e-39
0.079342857 0.67479146 0.48800325 8.2071921e-39
0.079990141 0.67476285 0.48817775 8.3915834e-39
0.08063744 0.67473423 0.48835224 8.483779e-39
0.081284717 0.67470568 0.48852673 8.6681703e-39
0.081537969 0.67370021 0.4888072 8.3919393e-39
0.082183696 0.67367172 0.48898128 8.3919393e-39
0.082829423 0.67364317 0.48915538 8.7596428e-39
0.083076455 0.67263806 0.48943415 8.8518384e-39
0.083720632 0.67260957 0.48960781 8.8525615e-39
0.084364809 0.67258114 0.48978147 9.0369528e-39
0.085008986 0.6725527 0.48995513 9.1291484e-39
0.085653163 0.67252421 0.49012879 8.8525615e-39
0.086297341 0.67249578 0.49030244 9.3135397e-39
0.086941503 0.67246735 0.4904761 9.6823222e-39
0.087176077 0.67146271 0.49075153 1.0050382e-38
0.087818705 0.67143434 0.49092478 1.051136e-38
0.08846131 0.67140597 0.49109799 1.0695391e-38
0.089103937 0.67137754 0.49127126 1.0787587e-38
0.089746557 0.67134917 0.4914445 1.0971978e-38
0.09038917 0.6713208 0.49161771 1.1064173e-38
0.090612866 0.6703167 0.49189022 1.134076e-38
0.091253921 0.67028838 0.49206305 1.1248565e-38
0.091894999 0.67026007 0.49223587 1.1708464e-38
0.092536055 0.67023176 0.49240866 1.1892855e-38
0.09317711 0.67020345 0.49258149 1.198613e-38
0.09381818 0.67017514 0.49275431 1.2354912e-38
0.094459243 0.67014682 0.49292713 1.2262714e-38
0.095100299 0.67011851 0.49309996 1.2539301e-38
0.095741369 0.6700902 0.49327278 1.2908083e-38
0.096382432 0.67006189 0.49344561 1.2908083e-38
0.097023487 0.67003357 0.4936184 1.3369417e-38
0.097664557 0.6700052 0.49379122 1.3461613e-38
0.098305613 0.66997689 0.49396405 1.4105184e-38
0.098946691 0.66994858 0.49413687 1.3736402e-38
0.099587746 0.66992027 0.49430969 1.4472888e-38
0.1002288 0.66989195 0.49448252 1.4472888e-38
0.10086987 0.66986364 0.49465534 1.4289573e-38
0.10151093 0.66983533 0.49482816 1.4658355e-38
0.10215199 0.66980702 0.49500099 1.5027138e-38
0.10279306 0.6697787 0.49517381 1.5119334e-38
0.10343412 0.66975039 0.49534661 1.4842747e-38
0.10362358 0.66874778 0.49560988 1.5027138e-38
0.10426308 0.66871959 0.49578229 1.5211529e-38
0.1049026 0.66869134 0.49595469 1.5580312e-38
0.10554211 0.66866308 0.49612707 1.5580312e-38
0.10618161 0.66863483 0.49629948 1.5488116e-38
0.10636172 0.66763264 0.49656022 1.5487037e-38
0.10699967 0.66760445 0.49673221 1.5394841e-38
0.10763763 0.66757625 0.49690419 1.5763624e-38
0.10827557 0.66754806 0.49707615 1.5763624e-38
0.10937914 0.66849357 0.49716148 1.5856899e-38
0.11001864 0.66846538 0.49733388 1.5764703e-38
0.11065816 0.66843712 0.49750629 1.5672507e-38
0.11129767 0.66840887 0.4976787 1.5764703e-38
0.11193717 0.66838062 0.4978511 1.5303725e-38
0.11257668 0.66835237 0.49802348 1.5488116e-38
0.11369113 0.6692974 0.49811175 1.5303725e-38
0.11433218 0.66926908 0.49828455 1.5580312e-38
0.11497325 0.66924071 0.49845737 1.5580312e-38
0.11561431 0.6692124 0.4986302 1.5303725e-38
0.11625537 0.66918409 0.49880302 1.5302646e-38
0.11737917 0.6701287 0.4988938 1.5302646e-38
0.11802177 0.67010033 0.49906704 1.5027141e-38
0.1186644 0.67007196 0.49924028 1.5119336e-38
0.11930701 0.67004353 0.49941352 1.5211532e-38
0.11994963 0.67001516 0.49958676 1.5027141e-38
0.12059226 0.66998678 0.49976 1.4841668e-38
0.12123486 0.66995841 0.49993321 1.5118255e-38
0.12138388 0.66895759 0.50018561 1.521045e-38
0.12202493 0.66892928 0.5003584 1.4472885e-38
0.12167254 0.66695637 0.50068778 1.401191e-38
0.12131391 0.66498369 0.50101548 1.3919714e-38
-0.15796471 0.652439 0.43039194 4.4242874e-39
-0.15736878 0.65241271 0.4305526 4.4242874e-39
-0.15657757 0.65138358 0.43097976 4.516483e-39
-0.15598319 0.65135735 0.43114001 4.9781801e-39
-0.1553888 0.65133107 0.43130022 4.9781801e-39
-0.15479442 0.65130484 0.43146047 4.4250063e-39
-0.15420003 0.65127856 0.43162069 4.0562238e-39
-0.15360565 0.65125233 0.43178093 4.1477005e-39
-0.15282534 0.65022367 0.43220514 4.1477005e-39
-0.15223251 0.65019751 0.43236497 3.8718325e-39
-0.15163969 0.65017134 0.43252477 3.8718325e-39
-0.15104686 0.65014511 0.4326846 3.8718325e-39
-0.15045404 0.65011895 0.4328444 3.8718325e-39
-0.14968306 0.64909071 0.43326613 3.8718325e-39
-0.14909178 0.6490646 0.43342552 3.8718325e-39
-0.14850052 0.64903849 0.43358493 3.8718325e-39
-0.14790924 0.64901233 0.43374431 3.8718325e-39
-0.14714605 0.6479845 0.4341639 3.6874412e-39
-0.14655633 0.64795846 0.43432289 3.6874412e-39
-0.14596662 0.64793241 0.43448186 3.5952456e-39
-0.14537691 0.64790636 0.43464085 3.4108543e-39
-0.14478718 0.64788032 0.43479982 3.4108543e-39
-0.14403333 0.64685279 0.4352169 3.5952456e-39
-0.14344516 0.6468268 0.43537545 3.4108572e-39
-0.142857 0.64680088 0.43553403 3.3186615e-39
-0.14226885 0.64677489 0.43569258 3.4108572e-39
-0.14168069 0.6467489 0.43585113 3.3186615e-39
-0.14109252 0.64672291 0.43600971 3.3186615e-39
-0.14050436 0.64669693 0.43616825 3.3186615e-39
-0.13991621 0.64667094 0.43632683 3.2264659e-39
-0.13932805 0.64664501 0.43648538 3.2264659e-39
-0.13873988 0.64661902 0.43664393 3.2264659e-39
-0.13815174 0.64659303 0.43680248 3.2264659e-39
-0.13756357 0.64656705 0.43696105 3.2264659e-39
-0.13697542 0.64654106 0.4371196 3.0420746e-39
-0.13638726 0.64651507 0.43727815 2.949879e-39
-0.1357991 0.64648914 0.43743673 3.3186615e-39
-0.13507013 0.64546275 0.43784711 2.9506021e-39
-0.13448353 0.64543682 0.43800524 3.0427977e-39
-0.13389692 0.64541095 0.43816337 2.9506021e-39
-0.13331032 0.64538503 0.4383215 2.9506021e-39
-0.13272372 0.6453591 0.43847966 2.9506021e-39
-0.13213712 0.64533323 0.43863779 2.7662108e-39
-0.13155051 0.6453073 0.43879592 2.7662108e-39
-0.13096391 0.64528137 0.43895406 2.8584064e-39
-0.13037731 0.64525551 0.43911222 2.7662108e-39
-0.12979069 0.64522958 0.43927035 2.7662108e-39
-0.12920409 0.64520365 0.43942848 2.7665709e-39
-0.1284938 0.64417809 0.43983382 2.9509622e-39
-0.12790875 0.64415222 0.43999153 2.8584064e-39
-0.1273237 0.64412642 0.44014928 2.9506021e-39
-0.12673865 0.64410055 0.44030699 2.7662108e-39
-0.12615362 0.64407474 0.44046471 2.7662108e-39
-0.12556857 0.64404887 0.44062242 2.8584092e-39
-0.12498352 0.64402306 0.44078013 2.9506049e-39
-0.12439847 0.64399719 0.44093785 2.9506049e-39
-0.12381342 0.64397138 0.44109559 2.8584092e-39
-0.12322837 0.64394552 0.4412533 2.8584092e-39
-0.12264333 0.64391971 0.44141102 2.8584092e-39
-0.12205828 0.64389384 0.44156873 2.8584092e-39
-0.12147323 0.64386803 0.44172645 2.9506049e-39
-0.12088818 0.64384216 0.44188419 2.8587694e-39
-0.12030314 0.64381635 0.4420419 2.7665737e-39
-0.11971809 0.64379048 0.44219962 2.7665737e-39
-0.11913304 0.64376467 0.44235733 2.950965e-39
-0.11854799 0.64373881 0.44251505 2.7665737e-39
-0.11796295 0.64371294 0.44267279 2.950965e-39
-0.1173779 0.64368713 0.4428305 3.3197475e-39
-0.11679285 0.64366126 0.44298822 3.1353563e-39
-0.1162078 0.64363545 0.44314593 2.7665737e-39
-0.11562276 0.64360958 0.44330364 2.7665737e-39
-0.11503771 0.64358377 0.44346136 2.7665766e-39
-0.11445266 0.64355791 0.4436191 2.7665766e-39
-0.11386761 0.6435321 0.44377682 2.4899897e-39
-0.11328257 0.64350623 0.44393453 2.4899897e-39
-0.11269752 0.64348042 0.44409224 2.4899897e-39
-0.11219259 0.64445227 0.44401452 2.4899897e-39
-0.11160599 0.64442641 0.44417265 2.6743809e-39
-0.11101939 0.64440048 0.44433078 2.6743809e-39
-0.11043278 0.64437455 0.44448891 2.6743809e-39
-0.10984618 0.64434868 0.44464707 2.397794e-39
-0.10925958 0.64432275 0.4448052 2.4899897e-39
-0.10867298 0.64429682 0.44496334 2.7665766e-39
-0.10808637 0.64427096 0.4451215 2.6743809e-39
-0.10749976 0.64424503 0.44527963 2.6743809e-39
-0.10691316 0.6442191 0.44543776 2.6743809e-39
-0.10632656 0.64419323 0.44559589 2.6743809e-39
-0.10573996 0.6441673 0.44575405 2.6743809e-39
-0.10515335 0.64414138 0.44591218 2.6743809e-39
-0.10456675 0.64411551 0.44607031 2.4899897e-39
-0.10398015 0.64408958 0.44622844 2.4899897e-39
-0.10339354 0.64406365 0.44638661 2.397794e-39
-0.10286216 0.64503437 0.446316 2.6743809e-39
-0.10227401 0.64500839 0.44647455 2.7665766e-39
-0.10168584 0.6449824 0.4466331 2.7665766e-39
-0.10109769 0.64495641 0.44679168 2.7665766e-39
-0.10050952 0.64493042 0.44695023 2.7665766e-39
-0.099921368 0.64490449 0.44710878 2.7665766e-39
-0.0993791 0.64587474 0.44704112 2.7665766e-39
-0.098745048 0.64485252 0.4474259 2.7665766e-39
-0.098199666 0.64582264 0.44735906 2.7665766e-39
-0.097568728 0.64480054 0.44774303 2.7665766e-39
-0.097020239 0.64577055 0.44767702 2.9509678e-39
-0.096392408 0.64474863 0.44806013 3.0431634e-39
-0.095804252 0.64472264 0.4482187 3.0431634e-39
-0.095251091 0.64569241 0.44815394 2.9509678e-39
-0.094661377 0.64566636 0.44831294 2.9509678e-39
-0.094071656 0.64564031 0.4484719 2.9509678e-39
-0.093481943 0.64561427 0.4486309 2.9509678e-39
-0.09289223 0.64558822 0.44878986 2.9509678e-39
-0.092302509 0.64556217 0.44894883 2.9509678e-39
-0.091738455 0.6465314 0.44888705 3.0431634e-39
-0.091147184 0.6465053 0.44904646 2.9509678e-39
-0.090578467 0.64747435 0.4489859 3.1353591e-39
-0.089985639 0.64744818 0.44914573 2.9509678e-39
-0.089392811 0.64742202 0.44930553 3.0431606e-39
-0.088799983 0.64739579 0.44946536 3.3197475e-39
-0.088223487 0.64836454 0.44940692 3.1353563e-39
-0.087629102 0.64833826 0.44956717 3.1353563e-39
-0.087034717 0.64831203 0.44972739 3.3197475e-39
-0.086451992 0.64928043 0.44967064 3.5041388e-39
-0.08585605 0.64925414 0.44983128 3.504136e-39
-0.085260108 0.6492278 0.44999194 3.504136e-39
-0.084664173 0.64920145 0.45015261 3.5963344e-39
-0.084068231 0.64917517 0.45031327 3.5963344e-39
-0.083472297 0.64914882 0.4504739 3.5963344e-39
-0.082876354 0.64912254 0.45063457 3.5963344e-39
-0.082280412 0.64909619 0.45079523 3.5963344e-39
-0.081683688 0.65006405 0.45074224 3.5041388e-39
-0.081086189 0.65003765 0.45090333 3.68853e-39
-0.080488697 0.65001124 0.45106438 3.5963344e-39
-0.079891205 0.64998484 0.45122546 3.68853e-39
-0.079293706 0.64995849 0.45138654 3.7807257e-39
-0.078696214 0.64993209 0.45154762 4.1491453e-39
-0.078088589 0.65089941 0.45149755 4.3335365e-39
-0.077477857 0.65186661 0.45144835 4.3335365e-39
-0.076877251 0.65184009 0.45161027 4.2413409e-39
-0.076276638 0.65181357 0.45177218 4.1491453e-39
-0.075659685 0.65278047 0.45172465 4.0569496e-39
-0.075057521 0.65275389 0.45188698 4.1491453e-39
-0.074455358 0.65272731 0.45204931 4.1491453e-39
-0.073853195 0.65270072 0.45221165 4.2417038e-39
-0.073228456 0.65366727 0.4521662 4.0573126e-39
-0.072624743 0.65364063 0.45232895 4.1495082e-39
-0.072021022 0.65361398 0.4524917 4.6104863e-39
-0.071417302 0.65358728 0.45265445 4.4260951e-39
-0.070813581 0.65356064 0.45281723 4.6104863e-39
-0.070179507 0.65452677 0.45277432 4.6104835e-39
-0.069574237 0.65450007 0.45293748 4.7948748e-39
-0.068968959 0.6544733 0.45310065 4.6108395e-39
-0.068363681 0.6544466 0.45326382 4.7952307e-39
-0.067721836 0.65541244 0.45322299 4.9792619e-39
-0.067115001 0.65538561 0.4533866 4.9792619e-39
-0.066468477 0.65635127 0.45334703 5.0714575e-39
-0.065860093 0.65632439 0.45351103 5.0714575e-39
-0.065251708 0.6562975 0.45367506 4.9792619e-39
-0.064643323 0.65627062 0.45383906 5.0714575e-39
-0.063989021 0.65723592 0.4538016 5.0718176e-39
-0.063379079 0.65720898 0.45396602 4.979622e-39
-0.06276913 0.65718204 0.45413044 4.7041141e-39
-0.06210861 0.65814704 0.45409468 4.7041141e-39
-0.061497111 0.65812004 0.45425951 4.9792661e-39
-0.060885612 0.65809304 0.45442435 5.0714617e-39
-0.060274113 0.65806603 0.45458922 5.3480486e-39
-0.059605807 0.65903068 0.45455551 5.3480486e-39
-0.058934391 0.6599952 0.45452267 5.4402442e-39
-0.058319781 0.65996808 0.45468837 5.3480486e-39
-0.057705168 0.6599409 0.45485404 5.5324398e-39
-0.05702753 0.66090512 0.45482287 5.3480486e-39
-0.056411363 0.66087794 0.45498899 5.3484045e-39
-0.055729054 0.66184199 0.45495906 5.4406001e-39
-0.055111334 0.66181469 0.4551256 5.5327958e-39
-0.05449361 0.66178739 0.45529214 5.6249914e-39
-0.053805079 0.6627512 0.45526388 5.9015783e-39
-0.053185798 0.66272384 0.45543084 5.717187e-39
-0.0524926 0.66368735 0.45540386 5.9937739e-39
-0.051871765 0.66365993 0.45557123 6.1781652e-39
-0.051173899 0.66462332 0.45554551 6.0859696e-39
-0.050551508 0.66459584 0.4557133 6.2703608e-39
-0.049848974 0.66555899 0.45568883 6.9153673e-39
-0.049225025 0.6655314 0.45585704 7.0075629e-39
-0.04860108 0.66550386 0.45602524 7.1912311e-39
-0.047892317 0.66646671 0.45600244 7.2834267e-39
-0.047266815 0.66643912 0.45617107 7.7436832e-39
-0.046641313 0.66641146 0.45633972 7.9280745e-39
-0.04601581 0.66638386 0.45650834 8.4812483e-39
-0.045299273 0.66734636 0.45648766 8.7578351e-39
-0.044672213 0.6673187 0.45665669 9.1266205e-39
-0.044045154 0.66729099 0.45682573 8.7578379e-39
-0.043322388 0.66825324 0.45680672 8.1124685e-39
-0.042693775 0.66822547 0.45697618 8.2968598e-39
-0.041966345 0.66918755 0.45695844 7.9287961e-39
-0.041336175 0.66915971 0.45712832 7.7444049e-39
-0.040604074 0.67012155 0.45711184 7.3767014e-39
-0.039972346 0.6700936 0.45728213 7.1923101e-39
-0.039235581 0.67105526 0.4572669 6.8235346e-39
-0.038602296 0.6710273 0.4574376 6.731339e-39
-0.037860863 0.67198873 0.45742366 6.5469477e-39
-0.037116315 0.67295003 0.45741051 6.3625564e-39
-0.03647992 0.6729219 0.45758206 6.3625564e-39
-0.035730708 0.67388302 0.4575702 6.2703608e-39
-0.034978379 0.67484397 0.45755914 6.2703608e-39
-0.034222942 0.67580473 0.45754895 6.0859696e-39
-0.033464391 0.67676544 0.45753959 5.993418e-39
-0.032702729 0.67772597 0.45753106 5.993418e-39
-0.031937957 0.67868638 0.45752338 6.0859696e-39
-0.031170068 0.67964667 0.45751652 6.0859696e-39
-0.030399069 0.68060678 0.45751053 5.9937739e-39
-0.029624959 0.68156677 0.45750535 5.9937739e-39
-0.028847737 0.68252659 0.45750102 5.9937739e-39
-0.028067404 0.68348628 0.45749754 5.9937739e-39
-0.027413895 0.68345743 0.45767373 6.0859696e-39
-0.026628891 0.68441695 0.45767149 6.0859696e-39
-0.025973827 0.68438804 0.45784807 6.1781652e-39
-0.025318759 0.68435907 0.45802468 6.1781652e-39
-0.024527533 0.68531829 0.45802411 6.0859696e-39
-0.02387091 0.68528932 0.45820114 6.1781652e-39
-0.023075016 0.68624836 0.45820186 6.1781652e-39
-0.022416838 0.68621927 0.45837927 6.2703608e-39
-0.021616274 0.68717808 0.45838124 6.731339e-39
-0.02095654 0.68714893 0.4585591 6.8235346e-39
-0.020296806 0.68711978 0.45873696 6.8231787e-39
-0.01949002 0.68807834 0.45874059 7.0997656e-39
-0.0097337207 0.71548444 0.45538276 1.0516428e-38
-0.0093509732 0.71347916 0.45591366 1.2631509e-38
0.0074255825 0.78133643 0.44568035 6.8220955e-39
0.0082346918 0.78130072 0.44589847 6.6373483e-39
0.0088687418 0.78027856 0.44628325 6.5451526e-39
0.0096762953 0.78024286 0.44650096 5.9923348e-39
0.010305676 0.77922094 0.44688448 5.9923348e-39
0.011111673 0.7791853 0.44710177 6.2689217e-39
0.011917669 0.77914971 0.44731906 6.176726e-39
0.012723667 0.77911413 0.44753635 6.3611173e-39
0.013345269 0.7780925 0.44791776 6.3611173e-39
0.01414971 0.77805698 0.44813463 6.2700007e-39
0.015141655 0.77900732 0.44818819 6.4543919e-39
0.015947653 0.77897173 0.44840547 6.177805e-39
0.016753646 0.77893615 0.44862276 6.2700007e-39
0.017559644 0.7789005 0.44884005 6.6384273e-39
0.014025826 0.69455147 0.46606508 6.0859696e-39
0.014699564 0.69452167 0.46624669 6.0859696e-39
0.015373302 0.69449192 0.46642834 5.9937739e-39
0.01604704 0.69446218 0.46660995 5.993418e-39
0.016720777 0.69443244 0.4667916 6.0856136e-39
0.017394515 0.69440264 0.46697322 5.994497e-39
0.018068254 0.69437289 0.46715486 5.994497e-39
0.018741991 0.69434315 0.46733648 5.994497e-39
0.019415732 0.69431341 0.46751812 6.1788883e-39
0.02008947 0.6942836 0.46769974 6.730983e-39
0.020763209 0.69425386 0.46788138 6.3622005e-39
0.021436946 0.69422412 0.468063 6.1781652e-39
0.022110684 0.69419438 0.46824461 6.1781652e-39
0.02254246 0.6931811 0.46857488 6.1781652e-39
0.023214638 0.69315141 0.46875608 6.0859696e-39
0.023886824 0.69312173 0.46893731 6.1778093e-39
0.024312366 0.69210875 0.46926588 5.993418e-39
0.024982991 0.69207913 0.46944666 5.993418e-39
0.025653625 0.6920495 0.46962747 6.0856136e-39
0.026072953 0.69103682 0.46995434 6.0856136e-39
0.026742019 0.69100726 0.47013474 6.1778093e-39
0.027411092 0.69097775 0.4703151 6.0856136e-39
0.028080158 0.69094819 0.47049546 6.0856136e-39
0.028491698 0.6899358 0.47082028 6.0856164e-39
0.029159212 0.6899063 0.47100022 6.1778121e-39
0.029826727 0.68987685 0.47118017 6.0856164e-39
0.030494239 0.68984735 0.47136012 6.1778121e-39
0.031161753 0.68981785 0.47154006 6.3622033e-39
0.031563967 0.68880594 0.47186235 6.2700077e-39
0.03222993 0.68877655 0.47204188 6.0856136e-39
0.032895885 0.68874711 0.4722214 6.0856136e-39
0.033561844 0.68871772 0.47240096 6.0859696e-39
0.0342278 0.68868828 0.47258049 5.9937739e-39
0.034893762 0.68865889 0.47276002 6.0856136e-39
0.035285071 0.6876474 0.47307935 6.0856136e-39
0.03594948 0.68761802 0.47325847 5.9012224e-39
0.036613882 0.68758869 0.47343758 6.0856136e-39
0.037278283 0.68755937 0.47361669 5.993418e-39
0.037661817 0.68654823 0.47393394 5.993418e-39
0.038324665 0.68651897 0.47411263 5.9012224e-39
0.038987517 0.6864897 0.47429132 5.993418e-39
0.039650358 0.68646044 0.47447002 5.7168311e-39
0.040313207 0.68643117 0.47464871 6.0856136e-39
0.040687412 0.68542045 0.47496346 6.0856136e-39
0.041348703 0.68539125 0.47514173 6.0856136e-39
0.042009991 0.68536204 0.47532001 6.1778093e-39
0.042671282 0.68533283 0.47549829 6.0856136e-39
0.043332569 0.68530363 0.47567654 5.994497e-39
0.04399386 0.68527442 0.47585481 5.994497e-39
0.044655148 0.68524522 0.47603309 5.994497e-39
0.045316447 0.68521601 0.47621137 6.0866926e-39
0.045977734 0.6851868 0.47638965 5.994497e-39
0.046336375 0.68417674 0.47670019 6.0866926e-39
0.046996102 0.6841476 0.47687805 6.1788911e-39
0.047655839 0.68411845 0.47705588 5.9944998e-39
0.048315577 0.6840893 0.47723374 6.0866954e-39
0.048975307 0.68406022 0.4774116 6.3632823e-39
0.049635045 0.68403107 0.47758946 6.3632795e-39
0.050294776 0.68400192 0.47776729 6.4554751e-39
0.05064097 0.68299246 0.47807449 6.4554751e-39
0.051299155 0.68296337 0.47825193 6.5476708e-39
0.051957332 0.68293434 0.47842935 6.8231787e-39
0.052615512 0.68290526 0.47860679 6.5465918e-39
0.053273689 0.68287617 0.47878423 6.1788883e-39
0.053610541 0.68186712 0.4790889 6.6398664e-39
0.054267164 0.6818381 0.4792659 6.5476708e-39
0.054923784 0.68180913 0.47944292 6.732062e-39
0.055254418 0.68080032 0.47974592 7.1933961e-39
