# .PCD v0.7 - Point Cloud Data file format
VERSION 0.7
FIELDS x y z rgb
SIZE 4 4 4 4
TYPE F F F F
COUNT 1 1 1 1
WIDTH 1001
HEIGHT 1
VIEWPOINT 0 0 0 1 0 0 0
POINTS 1001
DATA ascii
-0.092544928 0.64924383 0.44670516 2.950965e-39
-0.092056021 0.65024412 0.44641861 2.8587694e-39
-0.091434084 0.65024537 0.44644764 3.0431606e-39
-0.090812147 0.65024668 0.4464767 3.1353563e-39
-0.090190209 0.65024793 0.44650573 3.0431606e-39
-0.089568272 0.65024924 0.44653478 2.950965e-39
-0.088946342 0.65025049 0.44656381 3.3197475e-39
-0.088324405 0.65025181 0.44659287 3.1353563e-39
-0.087702468 0.65025306 0.44662189 3.1353563e-39
-0.087080531 0.65025437 0.44665095 3.3197475e-39
-0.086458601 0.65025562 0.44667998 3.1353563e-39
-0.085836664 0.65025693 0.44670904 3.3197475e-39
-0.085214727 0.65025818 0.44673806 3.1353563e-39
-0.084592789 0.65025949 0.44676712 3.1353563e-39
-0.08397086 0.65026075 0.44679615 3.3197475e-39
-0.083348922 0.65026206 0.44682521 3.3197475e-39
-0.082834229 0.65126234 0.44653985 3.1353563e-39
-0.082210682 0.65126359 0.44656897 3.1353563e-39
-0.081587136 0.65126491 0.44659808 3.3197475e-39
-0.080963589 0.65126616 0.44662723 3.5963344e-39
-0.080340043 0.65126747 0.44665635 3.5041388e-39
-0.079815686 0.65226781 0.44637144 3.5959743e-39
-0.07919053 0.65226907 0.44640064 3.6881699e-39
-0.078565367 0.65227038 0.44642982 3.5041388e-39
-0.077940211 0.65227163 0.44645903 3.5041388e-39
-0.077315055 0.65227294 0.4464882 3.5963344e-39
-0.076689899 0.65227425 0.44651741 3.5963344e-39
-0.076064736 0.6522755 0.44654658 3.4119432e-39
-0.07543958 0.65227681 0.44657579 3.5963344e-39
-0.074814416 0.65227813 0.446605 3.68853e-39
-0.074189261 0.65227938 0.44663417 3.68853e-39
-0.073564105 0.65228069 0.44666338 3.5963344e-39
-0.073020414 0.65328103 0.44637939 3.9651169e-39
-0.072393641 0.65328228 0.44640866 3.9651169e-39
-0.071766876 0.6532836 0.44643793 3.9651169e-39
-0.071140103 0.65328491 0.44646719 4.6104835e-39
-0.07051333 0.65328622 0.44649646 4.7948748e-39
-0.069959976 0.65428656 0.44621292 4.4260923e-39
-0.069331594 0.65428787 0.44624227 4.0573098e-39
-0.068703212 0.65428913 0.4462716 4.1491453e-39
-0.06807483 0.65429044 0.44630095 4.1491453e-39
-0.067513421 0.65529084 0.4460178 4.0569496e-39
-0.066883422 0.65529215 0.44604722 4.0569496e-39
-0.066253431 0.65529346 0.44607663 4.2413409e-39
-0.06568557 0.65629381 0.44579378 4.1491453e-39
-0.06505397 0.65629512 0.44582328 4.1495054e-39
-0.064422369 0.65629643 0.44585276 4.241701e-39
-0.063790761 0.65629774 0.44588226 4.1495054e-39
-0.06315916 0.65629905 0.44591174 4.1495054e-39
-0.062581636 0.65729946 0.44562933 4.1495082e-39
-0.061948419 0.65730077 0.44565889 4.0573126e-39
-0.061315205 0.65730208 0.44568846 4.0573126e-39
-0.060681991 0.65730339 0.44571805 4.1495082e-39
-0.060048778 0.6573047 0.44574761 4.2417038e-39
-0.05941556 0.65730602 0.44577718 4.3338995e-39
-0.058782347 0.65730733 0.44580674 3.9651169e-39
-0.058149133 0.65730864 0.44583631 4.0573126e-39
-0.057515919 0.65730995 0.4458659 4.1495054e-39
-0.056882706 0.6573112 0.44589546 4.4260923e-39
-0.056249492 0.65731251 0.44592503 4.241701e-39
-0.05565263 0.65831298 0.44564351 4.3338967e-39
-0.055017803 0.65831429 0.44567317 4.4260923e-39
-0.054382976 0.6583156 0.44570282 4.7948748e-39
-0.053748149 0.65831691 0.44573244 4.6104835e-39
-0.053113326 0.65831822 0.4457621 4.9792661e-39
-0.0524785 0.65831953 0.44579175 4.8870732e-39
-0.051870361 0.65932006 0.44551075 4.9792689e-39
-0.051233925 0.65932137 0.44554049 4.8870732e-39
-0.050597485 0.65932268 0.4455702 4.8870732e-39
-0.049961049 0.65932399 0.44559991 4.9792661e-39
-0.049324613 0.6593253 0.44562963 5.0714617e-39
-0.048688177 0.65932661 0.44565937 4.9792661e-39
-0.048068754 0.66032708 0.4453789 4.9792661e-39
-0.047430709 0.66032839 0.4454087 5.1647363e-39
-0.04679266 0.6603297 0.4454385 5.0725407e-39
-0.046154611 0.66033101 0.44546831 4.703761e-39
-0.045516565 0.66033238 0.44549808 4.8881522e-39
-0.044878516 0.66033369 0.44552788 4.7959566e-39
-0.044240467 0.660335 0.44555768 4.7959566e-39
-0.043608159 0.66133553 0.44527784 4.7037638e-39
-0.0429685 0.66133684 0.4453077 4.7959594e-39
-0.042328842 0.66133815 0.44533756 5.0725463e-39
-0.04168918 0.66133952 0.44536746 4.7959594e-39
-0.041049521 0.66134083 0.44539732 5.0725463e-39
-0.040409863 0.66134214 0.44542718 5.2569376e-39
-0.039770205 0.66134346 0.44545704 4.889234e-39
-0.039125003 0.66234398 0.44517779 4.6126471e-39
-0.038483735 0.66234535 0.44520774 5.0736253e-39
-0.037842464 0.66234666 0.4452377 4.889234e-39
-0.037201192 0.66234797 0.44526765 5.0736253e-39
-0.036547936 0.66334856 0.44498876 4.9814297e-39
-0.035905056 0.66334987 0.4450188 5.3502122e-39
-0.035246965 0.66435045 0.44474015 5.0736253e-39
-0.034602474 0.66435182 0.44477025 5.1658181e-39
-0.033957981 0.66435313 0.44480035 5.1658181e-39
-0.033293445 0.66535372 0.44452199 5.0736225e-39
-0.032647341 0.66535503 0.44455215 5.2580138e-39
-0.032001238 0.6653564 0.44458234 5.2580138e-39
-0.031355135 0.66535771 0.4446125 5.3502094e-39
-0.030682543 0.66635835 0.44433454 5.7179101e-39
-0.030034827 0.66635966 0.44436479 5.5335188e-39
-0.029387113 0.66636103 0.44439504 5.7179101e-39
-0.028739396 0.66636235 0.44442528 5.7179101e-39
-0.028058751 0.66736299 0.44414768 5.8101057e-39
-0.027409425 0.6673643 0.44417801 5.8101057e-39
-0.026760098 0.66736567 0.44420832 6.1778093e-39
-0.026073005 0.66836631 0.44393101 6.1778093e-39
-0.025422066 0.66836768 0.44396141 6.3622005e-39
-0.024730142 0.66936833 0.44368437 6.6387874e-39
-0.024077594 0.66936964 0.44371483 7.0079258e-39
-0.023425044 0.66937101 0.44374532 7.2845127e-39
-0.022772497 0.66937232 0.44377577 7.2845127e-39
-0.022072515 0.67037302 0.44349909 7.3767084e-39
-0.021418354 0.67037433 0.44352964 7.5610996e-39
-0.020764194 0.6703757 0.44356018 7.5610996e-39
-0.020110033 0.67037708 0.44359073 7.7451308e-39
-0.019401995 0.67137778 0.4433144 8.1139133e-39
-0.018746223 0.67137909 0.44334504 8.2050299e-39
-0.018090453 0.67138046 0.44337565 8.0206386e-39
-0.01737597 0.67238116 0.44309965 8.0206358e-39
-0.016718587 0.67238253 0.44313034 8.0206358e-39
-0.016061205 0.67238384 0.44316104 8.0209918e-39
-0.015340276 0.67338461 0.44288534 8.0209918e-39
-0.014681282 0.67338598 0.4429161 8.0220708e-39
-0.013955521 0.67438668 0.44264063 7.6532883e-39
-0.013294917 0.67438805 0.44267148 7.2845127e-39
-0.012634311 0.67438942 0.44270232 7.3767084e-39
-0.011902103 0.67539018 0.44242713 6.9164533e-39
-0.011239887 0.67539155 0.44245806 6.6398664e-39
-0.01050285 0.67639226 0.44218311 6.6398664e-39
-0.0098390216 0.67639363 0.4422141 6.5476708e-39
-0.0090971487 0.67739439 0.44193935 6.6398664e-39
-0.0084317094 0.67739576 0.44197044 6.5476708e-39
-0.0076850001 0.67839658 0.44169593 6.1788911e-39
-0.0070179515 0.67839795 0.44172707 6.1788911e-39
-0.0062664109 0.67939872 0.4414528 5.9023042e-39
-0.0055977488 0.67940009 0.44148403 5.5335216e-39
-0.0048413738 0.68040091 0.44120994 5.2572879e-39
-0.0041711023 0.68040228 0.44124126 5.3494835e-39
-0.003409894 0.68140304 0.44096744 5.7171842e-39
-0.0027380115 0.68140447 0.44099879 5.532793e-39
-0.0020661252 0.68140584 0.44103017 5.4405973e-39
-0.0012984709 0.68240666 0.44075665 5.2562061e-39
-0.00062497717 0.68240803 0.44078809 5.2562061e-39
4.8520324e-05 0.68240947 0.44081953 5.3484017e-39
0.00072201411 0.68241084 0.440851 5.5324356e-39
0.0013955078 0.68241221 0.44088244 5.9934138e-39
0.0021728294 0.68341303 0.44060937 5.4398841e-39
0.0028479344 0.68341446 0.4406409 1.0141861e-38
0.0035230394 0.68341583 0.44067243 1.0325529e-38
0.0041981484 0.6834172 0.44070396 1.1247486e-38
0.0048732534 0.68341863 0.44073546 7.6500555e-39
0.0055483584 0.68342 0.44076699 7.3734686e-39
0.0062234672 0.68342137 0.44079852 1.0233334e-38
0.0067834691 0.68242329 0.44113404 1.0878703e-38
0.007456963 0.68242472 0.44116551 1.1248209e-38
0.00813046 0.6824261 0.44119695 7.0072098e-39
0.0088039543 0.68242747 0.44122839 7.0072126e-39
0.0094774514 0.6824289 0.44125983 7.0072126e-39
0.010027782 0.68143076 0.44159493 6.7306229e-39
0.010699668 0.68143213 0.44162631 6.454036e-39
0.01137155 0.68143356 0.44165769 7.0997613e-39
0.012043433 0.68143493 0.44168904 7.0997613e-39
0.012585714 0.68043679 0.44202375 7.4685439e-39
0.013255985 0.68043822 0.44205505 7.0997613e-39
0.01392626 0.68043959 0.44208634 6.731339e-39
0.014462089 0.67944145 0.44242075 6.5469477e-39
0.015130753 0.67944282 0.44245198 6.8235346e-39
0.015799413 0.67944419 0.44248322 6.9157302e-39
0.016468076 0.67944556 0.44251442 7.0075699e-39
0.016995853 0.67844743 0.44284844 7.2841568e-39
0.017662905 0.6784488 0.44287959 7.1008445e-39
0.018329954 0.67845017 0.44291076 6.9164533e-39
0.018997006 0.67845154 0.4429419 7.2852358e-39
0.019664055 0.67845291 0.44297305 7.2852358e-39
0.020182163 0.67745477 0.44330662 7.1008445e-39
0.0208476 0.67745614 0.44333771 7.1930402e-39
0.021513041 0.67745751 0.44336876 7.2852358e-39
0.022024708 0.67645931 0.44370204 7.3774314e-39
0.022688534 0.67646068 0.44373304 7.469983e-39
0.023352358 0.67646205 0.44376403 7.7465699e-39
0.024016188 0.67646343 0.44379503 7.8387655e-39
0.024680015 0.6764648 0.44382605 7.9309611e-39
0.025182018 0.6754666 0.44415885 7.5621786e-39
0.025844233 0.67546797 0.44418979 8.0231568e-39
0.026341394 0.67446977 0.44452238 8.1153524e-39
0.027002001 0.67447114 0.44455323 8.0231568e-39
0.027662601 0.67447245 0.44458407 8.0231568e-39
0.028153328 0.67347425 0.44491637 8.207548e-39
0.028812321 0.67347562 0.44494712 8.0231568e-39
0.029471314 0.67347699 0.44497791 8.0231568e-39
0.029955586 0.67247874 0.44530991 8.1149965e-39
0.030612964 0.67248011 0.4453406 8.3915834e-39
0.031270348 0.67248142 0.4453713 8.0228008e-39
0.031748179 0.67148322 0.44570297 8.0228008e-39
0.032403957 0.67148459 0.44573361 8.2082711e-39
0.033059727 0.6714859 0.44576421 8.0238798e-39
0.033715494 0.67148727 0.44579485 8.2071921e-39
0.034371264 0.67148864 0.44582546 8.2071921e-39
0.035027042 0.67148995 0.44585609 7.9306052e-39
0.035682812 0.67149132 0.4458867 7.8384096e-39
0.036338583 0.6714927 0.44591734 7.5618227e-39
0.036994349 0.67149401 0.44594797 7.3774314e-39
0.037650127 0.67149538 0.44597858 7.3777846e-39
0.038305897 0.67149675 0.44600922 7.1933933e-39
0.038961668 0.67149806 0.44603983 7.1012005e-39
0.039418545 0.67049974 0.44637054 7.1933961e-39
0.040072709 0.67050111 0.44640109 7.1012005e-39
0.04072687 0.67050248 0.44643164 6.9168092e-39
0.04117731 0.66950417 0.44676206 6.9164533e-39
0.041829858 0.66950554 0.44679251 6.732062e-39
0.042482406 0.66950685 0.446823 6.3643585e-39
0.042926401 0.66850859 0.44715309 6.2721629e-39
0.04357734 0.6685099 0.44718349 6.1799673e-39
0.044016499 0.66751158 0.4475134 5.9033804e-39
0.044665825 0.66751289 0.44754371 5.9033804e-39
0.045100152 0.66651458 0.44787335 6.3643585e-39
0.045747869 0.66651589 0.4479036 5.995576e-39
0.046395585 0.66651726 0.44793385 6.1799673e-39
0.046823461 0.66551888 0.44826323 6.1799701e-39
0.047469564 0.66552019 0.44829339 6.1799701e-39
0.048115667 0.66552156 0.44832358 5.9033832e-39
0.048537105 0.66452318 0.44865263 6.1799701e-39
0.049181599 0.6645245 0.44868273 5.6267963e-39
0.049826093 0.66452587 0.44871283 5.7189919e-39
0.050241079 0.66352743 0.44904158 5.8111875e-39
0.050883964 0.6635288 0.44907159 5.7189919e-39
0.051294122 0.66253042 0.44940013 5.9023042e-39
0.051935393 0.66253173 0.44943005 5.7179129e-39
0.052576665 0.66253304 0.44946 5.9023042e-39
0.052980382 0.66153467 0.44978824 5.9023042e-39
0.053620037 0.66153598 0.4498181 5.7179129e-39
0.054259695 0.66153729 0.44984797 5.7179129e-39
0.054899357 0.6615386 0.44987786 5.7179129e-39
0.055295009 0.66054016 0.45020571 5.7179129e-39
0.055933058 0.66054147 0.45023549 5.7179101e-39
0.056571107 0.66054279 0.45026529 5.4413232e-39
0.056960318 0.65954441 0.45059285 5.3491276e-39
0.057596754 0.65954572 0.45062256 5.3491276e-39
0.058233194 0.65954703 0.45065227 5.5335188e-39
0.05886963 0.65954834 0.45068201 5.7179101e-39
0.059506062 0.65954965 0.45071173 5.5335188e-39
0.059885606 0.65855116 0.45103884 5.994497e-39
0.060520433 0.65855247 0.45106846 6.8231787e-39
0.061155252 0.65855378 0.45109811 6.730983e-39
0.061790079 0.65855509 0.45112777 6.4554751e-39
0.062161572 0.65755665 0.45145449 6.0866926e-39
0.06279479 0.65755796 0.45148405 5.994497e-39
0.063428 0.65755928 0.45151362 6.0866926e-39
0.064061217 0.65756053 0.45154318 6.1792442e-39
0.064694434 0.65756184 0.45157275 5.9948529e-39
0.065056249 0.65656334 0.45189905 6.5469449e-39
0.065687843 0.65656465 0.45192853 7.1001187e-39
0.066319451 0.65656596 0.45195803 6.3614704e-39
0.066674829 0.65556747 0.45228401 6.3614704e-39
0.067304827 0.65556878 0.45231342 6.1781582e-39
0.067934811 0.65557009 0.45234284 5.8093757e-39
0.068564802 0.65557134 0.45237225 6.6387804e-39
0.069194801 0.65557265 0.45240167 5.6246285e-39
0.069540501 0.6545741 0.4527272 5.8090225e-39
0.070168883 0.65457541 0.45275652 5.7168269e-39
0.070797265 0.65457672 0.45278588 5.8090225e-39
0.071425639 0.65457803 0.45281523 5.5324356e-39
0.072054021 0.65457928 0.45284456 5.3480486e-39
0.072390065 0.65358078 0.45316964 5.6246355e-39
0.073016837 0.6535821 0.45319891 5.6246355e-39
0.073643602 0.65358335 0.45322818 5.5324398e-39
0.074270375 0.65358466 0.45325744 5.440247e-39
0.074897148 0.65358597 0.45328671 5.440247e-39
0.075523913 0.65358722 0.45331597 5.440247e-39
0.075848676 0.65258867 0.45364052 5.440247e-39
0.07647384 0.65258998 0.4536697 5.6246355e-39
0.077098995 0.65259129 0.4536989 5.5324398e-39
0.077724151 0.65259254 0.45372811 5.5324398e-39
0.078040853 0.65159398 0.45405227 5.4402442e-39
0.0786644 0.65159523 0.45408139 5.5324398e-39
0.079287954 0.65159655 0.4541105 5.5324398e-39
0.079911493 0.6515978 0.45413962 5.4402442e-39
0.080535047 0.65159911 0.45416874 5.5324398e-39
0.081158586 0.65160036 0.45419785 5.3480486e-39
0.081782132 0.65160167 0.45422697 5.5324398e-39
0.08208596 0.65060306 0.45455053 5.3480514e-39
0.082707897 0.65060437 0.45457959 5.3480514e-39
0.083329827 0.65060562 0.45460862 5.2558558e-39
0.083951764 0.65060693 0.45463768 5.3480514e-39
0.084573694 0.65060818 0.4546667 5.3466094e-39
0.085195631 0.65060949 0.45469576 5.3466094e-39
0.085817568 0.65061074 0.45472479 5.6231963e-39
0.086439505 0.65061206 0.45475385 5.3466094e-39
0.087061442 0.65061331 0.45478287 5.1633e-39
0.087349139 0.64961469 0.45510569 5.4398869e-39
0.087969467 0.64961594 0.45513466 5.3476884e-39
0.088589787 0.64961725 0.45516363 5.4398841e-39
0.089210115 0.64961851 0.4551926 5.4398841e-39
0.089830443 0.64961982 0.45522156 5.0711016e-39
0.090108477 0.64862114 0.45554391 5.0711016e-39
0.090727195 0.64862239 0.45557281 5.1632972e-39
0.091345899 0.6486237 0.45560169 5.255853e-39
0.091964625 0.64862496 0.4556306 5.0714617e-39
0.092583328 0.64862627 0.45565948 5.3484045e-39
0.092851698 0.64762753 0.4559814 5.2562089e-39
0.093468793 0.64762884 0.45601022 5.0718176e-39
0.094085895 0.6476301 0.45603904 4.8874264e-39
0.094702989 0.64763135 0.45606786 4.7952307e-39
0.095320106 0.64763266 0.45609668 4.7030351e-39
0.095578797 0.64663392 0.45641813 4.6104835e-39
0.09619429 0.64663523 0.45644686 4.6104835e-39
0.096809782 0.64663649 0.45647562 4.8870732e-39
0.097425275 0.64663774 0.45650434 4.8870732e-39
0.098040767 0.64663905 0.4565331 4.9792689e-39
0.098656252 0.6466403 0.45656183 4.7948776e-39
0.099271744 0.64664155 0.45659056 4.702682e-39
0.099517561 0.64564282 0.45691141 4.7948776e-39
0.10013145 0.64564413 0.45694008 4.6115653e-39
0.10074534 0.64564538 0.45696875 4.2427828e-39
0.1013592 0.64564663 0.45699742 3.9672721e-39
0.10197309 0.64564788 0.45702609 3.8750765e-39
0.10258697 0.64564919 0.45705476 4.6115625e-39
0.10320085 0.64565045 0.45708343 4.6115625e-39
0.10381472 0.6456517 0.4571121 4.7037582e-39
0.10404602 0.6446529 0.45743227 4.4271713e-39
0.1046583 0.64465421 0.45746088 4.1505872e-39
0.10527056 0.64465547 0.45748946 3.9661959e-39
0.10588284 0.64465672 0.45751804 4.0583916e-39
0.1064951 0.64465797 0.45754665 4.2427828e-39
0.10710737 0.64465922 0.45757523 4.6115653e-39
0.10771964 0.64466053 0.45760381 4.4271741e-39
0.10833191 0.64466178 0.45763242 4.0583916e-39
0.10894417 0.64466304 0.457661 3.9661959e-39
0.10955645 0.64466429 0.45768961 4.1505872e-39
0.11016871 0.64466554 0.45771819 4.4271741e-39
0.11078098 0.64466679 0.45774677 4.1505844e-39
0.11099135 0.64366806 0.45806599 4.1505844e-39
0.111602 0.64366931 0.45809448 4.6108395e-39
0.11221266 0.64367056 0.458123 4.6108395e-39
0.11282332 0.64367181 0.45815152 4.7030351e-39
0.11343398 0.64367306 0.45818004 4.4264482e-39
0.11404463 0.64367431 0.45820856 4.3338967e-39
0.11465529 0.64367557 0.45823708 4.241701e-39
0.11526595 0.64367682 0.4582656 4.0573154e-39
0.11587661 0.64367807 0.45829409 4.0573154e-39
0.11648726 0.64367938 0.45832261 3.9661987e-39
0.11667989 0.64268053 0.45864099 4.0583944e-39
0.11728894 0.64268178 0.45866942 4.0583916e-39
0.11789799 0.64268303 0.45869789 4.0583916e-39
0.11850703 0.64268428 0.45872632 4.3338967e-39
0.11911608 0.64268553 0.45875475 4.0573098e-39
0.11972512 0.64268678 0.45878321 3.7807229e-39
0.12033417 0.64268804 0.45881164 4.0573098e-39
0.12051393 0.64168918 0.45912942 4.241701e-39
0.12112136 0.64169043 0.45915776 4.0573098e-39
0.12172879 0.64169168 0.45918614 3.7807229e-39
0.12233622 0.64169294 0.45921451 3.7807229e-39
0.12294366 0.64169419 0.45924288 3.4130222e-39
0.1235511 0.64169544 0.45927125 3.4130222e-39
0.12415852 0.64169669 0.45929959 3.5974162e-39
0.12476596 0.64169794 0.45932797 3.413025e-39
0.12537341 0.64169919 0.45935634 3.5974162e-39
0.12598084 0.64170045 0.45938471 4.15059e-39
0.12614286 0.64070153 0.45970166 3.413025e-39
0.12674868 0.64070278 0.45972994 3.7818075e-39
0.1273545 0.64070404 0.45975822 3.7818075e-39
0.12796032 0.64070529 0.4597865 3.5052206e-39
0.12856615 0.64070654 0.45981482 3.413025e-39
0.12917197 0.64070779 0.4598431 3.2286337e-39
0.1297778 0.64070904 0.45987138 3.690688e-39
0.13038361 0.64071029 0.45989966 3.4141012e-39
0.13053115 0.63971138 0.46021593 3.2297099e-39
0.13113537 0.63971263 0.46024415 3.2297099e-39
0.13173957 0.63971388 0.46027237 3.1375143e-39
0.13234378 0.63971508 0.46030059 3.0453186e-39
0.132948 0.63971633 0.46032879 3.4119432e-39
0.13355222 0.63971758 0.46035701 3.4119432e-39
0.13415642 0.63971883 0.46038523 3.5041388e-39
0.13476063 0.63972008 0.46041346 3.68853e-39
0.13536485 0.63972133 0.46044165 3.4130222e-39
0.13596907 0.63972259 0.46046987 3.5052178e-39
0.13657327 0.63972384 0.46049809 3.3208265e-39
0.1376535 0.64072526 0.46023917 3.1364353e-39
0.13825932 0.64072651 0.46026745 3.1364381e-39
0.13886514 0.64072776 0.46029574 3.1364381e-39
0.13899012 0.63972878 0.46061096 2.7687346e-39
0.13959433 0.63973004 0.46063915 2.9531258e-39
0.14019854 0.63973129 0.46066737 2.7687346e-39
0.14080276 0.63973254 0.46069559 3.0453214e-39
0.14140697 0.63973379 0.46072382 3.0453214e-39
0.14201118 0.63973504 0.46075201 3.0453214e-39
0.14261539 0.63973629 0.46078023 3.1364381e-39
0.14321961 0.63973755 0.46080846 3.2286337e-39
0.14382382 0.63973874 0.46083668 3.2286337e-39
0.14442803 0.63973999 0.46086487 2.8598512e-39
0.14503224 0.63974124 0.46089309 2.9520468e-39
0.14563645 0.63974249 0.46092132 3.2286337e-39
0.14574048 0.63874352 0.46123555 3.2282778e-39
0.14634308 0.63874471 0.46126369 3.2282778e-39
0.14694569 0.63874596 0.46129182 3.1360849e-39
0.14754829 0.63874722 0.46131998 3.1360849e-39
0.14815089 0.63874847 0.46134812 3.412669e-39
0.14875348 0.63874972 0.46137625 3.2282778e-39
0.14935608 0.63875097 0.46140438 3.2286337e-39
0.1494472 0.63775188 0.46171802 3.1364381e-39
0.15056129 0.63875341 0.46146068 2.9509678e-39
0.15116389 0.63875467 0.46148881 3.1353591e-39
0.15176649 0.63875592 0.46151695 3.5963316e-39
0.15185118 0.63775682 0.46183029 3.6885272e-39
0.15245216 0.63775808 0.46185833 3.5992113e-39
0.15305315 0.63775933 0.46188641 8.8543622e-39
0.15417689 0.63876086 0.46162951 8.7650588e-39
-0.27367949 0.91466397 0.35490093 3.2293568e-39
-0.2726306 0.91466612 0.35494989 3.413748e-39
-0.27158168 0.91466832 0.35499889 3.5052178e-39
-0.27018067 0.91367191 0.35537532 3.7818047e-39
-0.26948386 0.91467261 0.35509685 3.7807229e-39
-0.13954785 0.65114385 0.44326648 2.7662136e-39
-0.13892432 0.65114516 0.4432956 2.9506049e-39
-0.13830078 0.65114641 0.44332471 2.6743781e-39
-0.13767722 0.65114772 0.44335383 2.6743781e-39
-0.13705368 0.65114897 0.44338295 2.6743781e-39
-0.13643013 0.65115029 0.44341207 2.4899869e-39
-0.13580659 0.65115154 0.44344118 2.6743781e-39
-0.13518304 0.65115285 0.4434703 2.6743781e-39
-0.13455948 0.65115416 0.44349942 2.8584092e-39
-0.13393594 0.65115541 0.44352853 2.8584092e-39
-0.13331239 0.65115672 0.44355765 2.7665737e-39
-0.13268885 0.65115798 0.44358677 2.6743781e-39
-0.1320653 0.65115929 0.44361588 2.9509678e-39
-0.13144176 0.65116054 0.443645 2.397794e-39
-0.13081822 0.65116185 0.44367412 2.4910687e-39
-0.13019466 0.6511631 0.44370326 2.6754599e-39
-0.12957111 0.65116441 0.44373238 2.4910687e-39
-0.12872118 0.65016693 0.44408303 2.5832643e-39
-0.12809923 0.65016824 0.44411209 2.4910687e-39
-0.1274773 0.65016949 0.44414112 2.3066774e-39
-0.12685536 0.6501708 0.44417018 2.3066746e-39
-0.12623343 0.65017205 0.4441992 2.3066746e-39
-0.1256115 0.65017337 0.44422826 2.6754571e-39
-0.12498955 0.65017462 0.44425729 2.6754571e-39
-0.1241525 0.64917713 0.44460738 2.7665737e-39
-0.12353217 0.64917839 0.44463634 2.7665737e-39
-0.12291185 0.6491797 0.44466531 3.1353591e-39
-0.12229151 0.64918095 0.44469428 3.0431634e-39
-0.12167119 0.64918226 0.44472325 3.3197475e-39
-0.12105087 0.64918351 0.44475222 3.5963344e-39
-0.12043054 0.64918482 0.44478118 3.5041388e-39
-0.11981022 0.64918607 0.44481015 3.3197475e-39
-0.1191899 0.64918733 0.44483912 2.8587694e-39
-0.11856958 0.64918864 0.44486809 2.8587694e-39
-0.11794925 0.64918989 0.44489706 2.8587694e-39
-0.11732893 0.6491912 0.44492602 2.8587694e-39
-0.11670861 0.64919245 0.44495499 2.9506049e-39
-0.11608828 0.64919376 0.44498396 2.9506049e-39
-0.11546795 0.64919502 0.44501293 2.8587694e-39
-0.11484762 0.64919633 0.44504189 2.7665737e-39
-0.1142273 0.64919758 0.44507086 2.5832615e-39
-0.11360697 0.64919889 0.44509983 2.7676527e-39
-0.11298665 0.64920014 0.4451288 2.6754571e-39
-0.11236633 0.64920139 0.44515777 2.5832615e-39
-0.11174601 0.6492027 0.44518673 2.7665737e-39
-0.11112569 0.64920396 0.4452157 2.6743781e-39
-0.11050536 0.64920527 0.44524467 2.6743781e-39
-0.10988504 0.64920652 0.44527364 2.950965e-39
-0.1092647 0.64920783 0.44530261 2.8598484e-39
-0.10864438 0.64920908 0.44533157 2.8598484e-39
-0.10802406 0.64921039 0.44536054 2.6754571e-39
-0.10740373 0.64921165 0.44538951 2.5832615e-39
-0.10678341 0.64921296 0.44541848 2.5832615e-39
-0.10616308 0.64921421 0.44544744 2.3066746e-39
-0.10554276 0.64921546 0.44547641 2.952044e-39
-0.10492244 0.64921677 0.44550538 2.952044e-39
-0.10430212 0.64921802 0.44553435 2.7676527e-39
-0.1036818 0.64921933 0.44556332 2.4910659e-39
-0.10306147 0.64922059 0.44559228 2.6743781e-39
-0.10244114 0.6492219 0.44562125 2.8587694e-39
-0.10182081 0.64922315 0.44565022 2.8587694e-39
-0.10120049 0.64922446 0.44567919 2.950965e-39
-0.10058016 0.64922571 0.44570816 3.0428005e-39
-0.099959843 0.64922702 0.44573712 2.9506049e-39
-0.099339522 0.64922827 0.44576609 2.9506049e-39
-0.098719195 0.64922953 0.44579506 2.9506049e-39
-0.098098867 0.64923084 0.44582403 2.9506049e-39
-0.097478546 0.64923209 0.44585299 2.8584092e-39
-0.096858226 0.6492334 0.44588196 2.9506049e-39
-0.096237898 0.64923465 0.44591093 2.9506049e-39
-0.09561757 0.64923596 0.4459399 2.8584092e-39
-0.09499725 0.64923722 0.44596887 2.9506049e-39
-0.094376922 0.64923853 0.44599783 2.8587722e-39
-0.093756601 0.64923978 0.4460268 2.8587722e-39
-0.093136273 0.64924103 0.44605577 2.9509678e-39
-0.092515953 0.64924234 0.44608474 3.0431634e-39
-0.091895625 0.64924359 0.44611371 2.7665766e-39
-0.091275305 0.6492449 0.44614267 2.8587722e-39
-0.090654977 0.64924616 0.44617164 3.0431606e-39
-0.09016116 0.65024644 0.44588369 3.0431606e-39
-0.089539222 0.65024769 0.44591272 3.0431606e-39
-0.088917285 0.650249 0.44594178 3.1353563e-39
-0.088295355 0.65025032 0.4459708 3.1353563e-39
-0.087673418 0.65025157 0.44599986 3.0431606e-39
-0.087051481 0.65025288 0.44602889 3.1353591e-39
-0.086429544 0.65025413 0.44605795 3.3197503e-39
-0.085807614 0.65025544 0.44608697 3.1353591e-39
-0.085185677 0.65025669 0.44611603 3.411946e-39
-0.08456374 0.650258 0.44614509 3.3197475e-39
-0.083941802 0.65025926 0.44617411 3.3197475e-39
-0.083319873 0.65026057 0.44620317 3.1353563e-39
-0.082805105 0.65126079 0.44591621 3.3197475e-39
-0.082181558 0.6512621 0.44594532 3.1353563e-39
-0.081558004 0.65126342 0.44597444 3.3197475e-39
-0.080934457 0.65126467 0.44600356 3.5041388e-39
-0.080310918 0.65126598 0.44603267 3.4119432e-39
-0.079687372 0.65126723 0.44606179 3.411583e-39
-0.079063818 0.65126854 0.44609091 3.5959743e-39
-0.078440271 0.65126979 0.44612002 3.5041388e-39
-0.077816725 0.6512711 0.44614914 3.3197475e-39
-0.077193178 0.65127242 0.44617826 3.5963344e-39
-0.076569632 0.65127367 0.44620737 3.5963344e-39
-0.075946085 0.65127498 0.44623649 3.5963344e-39
-0.075410374 0.65227532 0.44595051 3.5963344e-39
-0.074785218 0.65227658 0.44597971 3.5963344e-39
-0.074160062 0.65227789 0.44600892 3.5963344e-39
-0.073534906 0.6522792 0.4460381 3.7807257e-39
-0.072991133 0.65327954 0.4457525 3.7807257e-39
-0.07236436 0.65328079 0.44578177 3.5963344e-39
-0.071737595 0.65328211 0.44581103 3.68853e-39
-0.07111083 0.65328342 0.4458403 4.3338967e-39
-0.070484057 0.65328467 0.44586957 4.0573098e-39
-0.069857284 0.65328598 0.44589883 3.9651141e-39
-0.069302239 0.65428632 0.44561377 3.7807229e-39
-0.068673857 0.65428764 0.44564313 3.7807229e-39
-0.068045482 0.65428895 0.44567245 3.9651141e-39
-0.067483991 0.65528935 0.44538769 4.0573098e-39
-0.066854 0.6552906 0.44541711 3.9651141e-39
-0.066224009 0.65529191 0.44544652 4.1495054e-39
-0.065594018 0.65529323 0.44547594 4.0573098e-39
-0.065024465 0.65629363 0.44519156 4.0573098e-39
-0.064392865 0.65629494 0.44522104 3.9651141e-39
-0.063761264 0.65629619 0.44525054 3.7807229e-39
-0.063129656 0.6562975 0.44528005 3.9651141e-39
-0.062498055 0.65629882 0.44530952 4.0573098e-39
-0.061866455 0.65630013 0.44533902 3.9651141e-39
-0.06128563 0.65730059 0.44505516 3.7807257e-39
-0.060652412 0.6573019 0.44508472 4.0573126e-39
-0.060019199 0.65730315 0.44511428 4.1495082e-39
-0.059385985 0.65730447 0.44514385 4.0573126e-39
-0.058752771 0.65730578 0.44517341 4.0573126e-39
-0.058119554 0.65730709 0.44520301 4.1495082e-39
-0.057486344 0.6573084 0.44523257 4.1495082e-39
-0.05685313 0.65730971 0.44526213 4.2417038e-39
-0.056219913 0.65731102 0.4452917 4.3338995e-39
-0.055586699 0.65731233 0.44532126 4.2417038e-39
-0.054953486 0.65731364 0.44535086 4.4271741e-39
-0.054353327 0.65831411 0.44506788 4.2427828e-39
-0.0537185 0.65831536 0.44509754 4.2427828e-39
-0.053083673 0.65831667 0.44512716 4.5193697e-39
-0.052448846 0.65831798 0.44515681 4.5193697e-39
-0.051814023 0.65831929 0.44518647 4.5193697e-39
-0.051179197 0.65832061 0.44521609 4.702682e-39
-0.050567757 0.65932113 0.44493365 4.702682e-39
-0.049931321 0.65932244 0.44496337 4.7948776e-39
-0.049294885 0.65932375 0.44499311 4.702682e-39
-0.048658449 0.65932506 0.44502282 4.8870704e-39
-0.048022013 0.65932637 0.44505253 4.7026792e-39
-0.047385573 0.65932769 0.44508225 4.7959538e-39
-0.046762858 0.66032821 0.44480035 4.7959538e-39
-0.046124808 0.66032952 0.44483015 4.7037582e-39
-0.045486759 0.66033083 0.44485992 4.7959538e-39
-0.044848714 0.66033214 0.44488972 4.7037582e-39
-0.044210665 0.66033345 0.44491953 4.6115625e-39
-0.043572616 0.66033477 0.44494933 4.6126443e-39
-0.04293457 0.66033608 0.4449791 4.6126443e-39
-0.042298961 0.66133666 0.4446978 4.70484e-39
-0.041659303 0.66133797 0.44472766 4.70484e-39
-0.041019645 0.66133928 0.44475752 4.70484e-39
-0.040379982 0.66134059 0.44478741 4.9814269e-39
-0.039740324 0.66134191 0.44481727 5.2569348e-39
-0.039100666 0.66134322 0.44484714 4.7959566e-39
-0.03845378 0.6623438 0.44456637 5.0736253e-39
-0.037812509 0.66234511 0.44459632 4.6126471e-39
-0.037171241 0.66234642 0.44462624 4.889234e-39
-0.036517907 0.66334701 0.44434577 4.9814297e-39
-0.035875026 0.66334832 0.44437581 5.0725463e-39
-0.035232145 0.66334963 0.44440582 5.0725463e-39
-0.03457237 0.66435027 0.44412562 5.1647419e-39
-0.033927877 0.66435158 0.44415572 5.1647419e-39
-0.033283383 0.66435289 0.44418582 5.2569348e-39
-0.032638889 0.66435421 0.44421592 5.3491304e-39
-0.03197106 0.66535485 0.44393611 5.2580138e-39
-0.031324953 0.66535616 0.4439663 5.5346006e-39
-0.03067885 0.66535747 0.44399646 5.9023042e-39
-0.030004572 0.66635811 0.44371694 5.7179129e-39
-0.029356858 0.66635948 0.44374719 5.9012252e-39
-0.028709142 0.6663608 0.44377744 5.7168339e-39
-0.028061427 0.66636211 0.44380769 5.9934208e-39
-0.027379094 0.66736275 0.44352856 5.7168339e-39
-0.026729766 0.66736412 0.44355887 5.6246383e-39
-0.026080441 0.66736543 0.44358921 6.1778121e-39
-0.025391662 0.66836607 0.44331038 6.0856136e-39
-0.024740724 0.66836745 0.44334078 6.2700049e-39
-0.024089787 0.66836876 0.44337118 6.9157302e-39
-0.023394564 0.66936946 0.44309264 7.0079258e-39
-0.022742014 0.66937077 0.4431231 6.9157302e-39
-0.022089465 0.66937214 0.44315359 7.1001215e-39
-0.021387799 0.67037278 0.44287536 7.1001215e-39
-0.020733638 0.67037416 0.4429059 7.468904e-39
-0.020079479 0.67037547 0.44293645 7.7451308e-39
-0.019425318 0.67037684 0.442967 8.1139133e-39
-0.018715594 0.67137754 0.44268915 8.2061089e-39
-0.018059822 0.67137891 0.44271979 7.8373264e-39
-0.01740405 0.67138022 0.44275039 7.8376795e-39
-0.016687881 0.67238092 0.44247285 8.1142664e-39
-0.016030498 0.6723823 0.44250354 8.2975787e-39
-0.015373114 0.67238367 0.44253424 7.9287961e-39
-0.014650499 0.67338437 0.44225699 8.0220708e-39
-0.013991506 0.67338574 0.44228777 7.8376795e-39
-0.013264059 0.67438644 0.44201076 7.6529351e-39
-0.012603454 0.67438781 0.44204161 7.5607395e-39
-0.011942849 0.67438918 0.44207245 7.1933961e-39
-0.011208954 0.67538995 0.44179571 7.1012005e-39
-0.010471842 0.67639071 0.44151917 7.1008445e-39
-0.0098080141 0.67639202 0.44155017 6.9164533e-39
-0.009144186 0.67639339 0.44158116 6.9164533e-39
-0.0084006265 0.67739415 0.44130489 6.8242577e-39
-0.0077351872 0.67739552 0.44133595 6.732062e-39
-0.0069867931 0.67839634 0.44105992 6.5476708e-39
-0.0063197426 0.67839772 0.44109106 6.0866926e-39
-0.0055665155 0.67939848 0.44081524 5.5335188e-39
-0.0048978557 0.67939985 0.44084647 5.6249914e-39
-0.004139794 0.68040067 0.44057086 5.6249914e-39
-0.0034695191 0.68040204 0.44060218 5.5327958e-39
-0.0027992479 0.68040341 0.44063348 5.6249914e-39
-0.002034741 0.68140423 0.44035816 5.6249914e-39
-0.0013628586 0.6814056 0.44038954 5.3484045e-39
-0.0006909761 0.68140697 0.44042093 5.2562089e-39
-1.9089923e-05 0.68140835 0.44045231 5.3484045e-39
0.00075347337 0.68240923 0.44017738 5.3484045e-39
0.0014269671 0.6824106 0.44020882 5.6249914e-39
0.0021004647 0.68241197 0.44024026 5.0714617e-39
0.0027739585 0.6824134 0.44027174 9.9578301e-39
0.0034474521 0.68241477 0.44030318 1.0234057e-38
0.0041209497 0.68241614 0.44033462 1.1340404e-38
0.0047944435 0.68241751 0.44036609 7.6511373e-39
0.0054679373 0.68241894 0.44039753 6.9135722e-39
0.0061414349 0.68242031 0.44042897 9.7730787e-39
0.0068149283 0.68242168 0.44046041 1.0049666e-38
0.0074884221 0.68242311 0.44049188 1.2077969e-38
0.0080435146 0.68142498 0.4408288 6.9150142e-39
0.0087153967 0.68142635 0.44086018 6.8228213e-39
0.0093872836 0.68142778 0.44089153 6.8228213e-39
0.010059166 0.68142915 0.44092292 6.7309788e-39
0.010606205 0.68043107 0.44125947 7.0075657e-39
0.011276477 0.68043244 0.44129077 8.0217148e-39
0.011946748 0.68043381 0.44132206 7.8373236e-39
0.012487339 0.67943567 0.44165832 7.3763454e-39
0.013156002 0.67943704 0.44168952 6.8231717e-39
0.013824662 0.67943847 0.44172075 6.3625564e-39
0.014493322 0.67943984 0.44175199 6.6391433e-39
0.015025861 0.6784417 0.44208783 6.8246136e-39
0.01569291 0.67844307 0.44211897 7.1012005e-39
0.016359963 0.67844445 0.44215012 7.1012005e-39
0.017027011 0.67844582 0.44218129 7.1012005e-39
0.017694063 0.67844719 0.44221243 7.3777874e-39
0.01821693 0.67744905 0.44254783 7.1933961e-39
0.018882366 0.67745042 0.44257891 7.1019235e-39
0.019547803 0.67745179 0.44261 7.1019235e-39
0.020213244 0.67745316 0.44264105 7.2863148e-39
0.020728059 0.67645502 0.44297609 7.2863148e-39
0.021391885 0.67645639 0.44300711 7.5618227e-39
0.022055715 0.67645776 0.44303811 7.4696271e-39
0.022719542 0.67645907 0.4430691 7.9298821e-39
0.023383366 0.67646044 0.44310009 8.206469e-39
0.023888517 0.67546231 0.44343466 8.207548e-39
0.024550732 0.67546368 0.44346559 8.207548e-39
0.025212951 0.67546505 0.44349653 7.9309611e-39
0.025711644 0.67446679 0.44383079 8.0231568e-39
0.026372252 0.67446816 0.44386166 8.5752516e-39
0.027032858 0.67446953 0.44389251 8.6674472e-39
0.027525112 0.67347133 0.44422647 8.3908603e-39
0.02818411 0.6734727 0.44425723 8.6674472e-39
0.028843103 0.67347407 0.44428802 8.5752516e-39
0.029502096 0.67347538 0.4443188 8.6674472e-39
0.029986294 0.67247713 0.44465241 8.6674472e-39
0.030643672 0.6724785 0.4446831 8.8518384e-39
0.03112304 0.6714803 0.44501647 8.3919393e-39
0.031778809 0.67148161 0.44504711 8.4841349e-39
0.032434586 0.67148298 0.44507772 8.1153524e-39
0.033090357 0.67148435 0.44510835 8.207548e-39
0.033746127 0.67148566 0.44513896 8.0231568e-39
0.034401897 0.67148703 0.4451696 8.207548e-39
0.035057671 0.6714884 0.4452002 8.2061131e-39
0.035713442 0.67148972 0.44523084 7.9295262e-39
0.036369212 0.67149109 0.44526145 7.5618227e-39
0.037024982 0.67149246 0.44529209 7.3774314e-39
0.03768076 0.67149383 0.44532269 7.1008445e-39
0.038140785 0.67049551 0.4456552 6.9164533e-39
0.038794946 0.67049682 0.44568574 7.1008445e-39
0.039449103 0.67049819 0.44571629 7.1008445e-39
0.039902691 0.66949993 0.44604844 6.5487498e-39
0.040555239 0.66950125 0.44607893 6.4565541e-39
0.04120779 0.66950262 0.44610938 6.4565541e-39
0.041654937 0.6685043 0.44644126 6.3643585e-39
0.042305868 0.66850567 0.44647166 6.2721629e-39
0.042748172 0.66750729 0.4468033 6.2721629e-39
0.043397497 0.66750866 0.44683364 6.2721629e-39
0.04404683 0.66750997 0.44686395 6.2721629e-39
0.044482689 0.66651165 0.44719529 5.9955788e-39
0.045130409 0.66651303 0.44722554 5.9955788e-39
0.045778126 0.66651434 0.44725579 5.7189919e-39
0.046207532 0.66551596 0.44758683 5.8111875e-39
0.046853643 0.66551733 0.44761699 6.0866954e-39
0.047499742 0.66551864 0.44764718 6.0866954e-39
0.047922723 0.66452032 0.44797793 5.7179129e-39
0.048567209 0.66452163 0.448008 5.9023042e-39
0.049211703 0.66452295 0.4480381 6.1788911e-39
0.049628228 0.66352457 0.44836855 6.3632823e-39
0.050271109 0.66352588 0.44839859 6.1788911e-39
0.050682802 0.66252756 0.4487288 6.0866954e-39
0.051324073 0.66252887 0.44875872 5.8101085e-39
0.051965345 0.66253018 0.44878867 5.7179129e-39
0.052370597 0.66153181 0.44911858 5.7179129e-39
0.053010259 0.66153312 0.44914848 5.7179129e-39
0.053649917 0.66153443 0.44917834 5.8101085e-39
0.054048713 0.66053599 0.44950795 5.7179129e-39
0.054686762 0.6605373 0.44953775 5.8101085e-39
0.055324811 0.66053861 0.44956756 5.8101085e-39
0.055962861 0.66053998 0.44959733 5.7179101e-39
0.056353614 0.65954155 0.44992658 5.9023014e-39
0.056990046 0.65954286 0.4499563 5.8101057e-39
0.057626482 0.65954417 0.44998601 5.7179101e-39
0.058262922 0.65954548 0.45001572 5.9023014e-39
0.058645606 0.65854704 0.45034459 5.994497e-39
0.059280433 0.65854836 0.45037425 6.9153743e-39
0.059915259 0.65854967 0.4504039 7.2841568e-39
0.060550086 0.65855098 0.45043352 6.730983e-39
0.06092472 0.65755248 0.45076203 6.5465918e-39
0.061557937 0.65755379 0.4507916 6.1778093e-39
0.062191147 0.6575551 0.45082116 6.0856136e-39
0.062824368 0.65755641 0.45085073 6.5465918e-39
0.063457578 0.65755773 0.45088029 6.3622005e-39
0.063822545 0.65655923 0.45120835 6.0859696e-39
0.064454146 0.65656054 0.45123783 6.1781652e-39
0.065085754 0.65656185 0.45126733 6.731339e-39
0.065717347 0.65656316 0.45129681 6.1781652e-39
0.066074267 0.65556467 0.45162448 5.993411e-39
0.066704258 0.65556598 0.4516539 5.7168241e-39
0.06733425 0.65556723 0.45168331 5.6246285e-39
0.067964241 0.65556854 0.45171273 5.7168241e-39
0.068313092 0.65457004 0.45204002 5.8090225e-39
0.068941474 0.65457129 0.45206937 5.8090225e-39
0.069569856 0.65457261 0.4520987 5.7168269e-39
0.070198238 0.65457392 0.45212805 5.5324356e-39
0.07082662 0.65457523 0.45215738 5.44024e-39
0.071165808 0.65357667 0.45248422 5.5324356e-39
0.071792573 0.65357798 0.45251349 5.3480444e-39
0.072419338 0.65357929 0.45254275 5.6246313e-39
0.073046118 0.65358055 0.45257202 5.5324356e-39
0.073672883 0.65358186 0.45260128 5.44024e-39
0.074299656 0.65358317 0.45263055 5.440247e-39
0.074627563 0.65258461 0.45295686 5.440247e-39
0.075252719 0.65258592 0.45298606 5.5324426e-39
0.075877883 0.65258718 0.45301524 5.2558558e-39
0.076503038 0.65258849 0.45304444 5.2558558e-39
0.077128194 0.65258974 0.45307362 5.3480514e-39
0.077446438 0.65159118 0.45339948 5.6246355e-39
0.078069985 0.65159243 0.4534286 5.7168311e-39
0.078693524 0.65159374 0.45345774 5.6246355e-39
0.079317078 0.65159506 0.45348686 5.3480486e-39
0.079627261 0.65059644 0.45381233 5.4402442e-39
0.080249198 0.65059775 0.45384136 5.5324398e-39
0.080871135 0.650599 0.45387042 5.3480486e-39
0.081493072 0.65060031 0.45389944 5.5324398e-39
0.082115009 0.65060157 0.4539285 5.0714645e-39
0.082736947 0.65060288 0.45395753 5.0714645e-39
0.083358884 0.65060413 0.45398659 5.5324426e-39
0.083980814 0.65060544 0.45401561 4.9792689e-39
0.084602743 0.65060669 0.45404467 5.6231991e-39
0.085224681 0.650608 0.4540737 5.6231991e-39
0.085846618 0.65060925 0.45410275 5.5310035e-39
0.086137466 0.64961064 0.45442733 5.162221e-39
0.086757794 0.64961189 0.4544563 5.3466123e-39
0.087378114 0.6496132 0.45448527 5.162221e-39
0.087998442 0.64961445 0.45451424 5.0700254e-39
0.088618763 0.64961576 0.4545432 5.162221e-39
0.089239091 0.64961702 0.45457217 5.2544166e-39
0.089518666 0.6486184 0.45489621 5.162221e-39
0.090137377 0.64861965 0.45492509 5.2544166e-39
0.090756096 0.6486209 0.454954 5.2544166e-39
0.0913748 0.64862221 0.45498288 5.1632972e-39
0.091993526 0.64862347 0.45501179 5.1632972e-39
0.092263423 0.64762479 0.45533538 5.1632972e-39
0.092880525 0.64762604 0.4553642 5.0711016e-39
0.093497619 0.64762735 0.45539302 4.7030351e-39
0.094114721 0.64762861 0.45542184 4.7030351e-39
0.094731815 0.64762986 0.45545065 4.8874264e-39
0.094992056 0.64663118 0.45577377 4.8874264e-39
0.095607549 0.64663249 0.45580253 4.7026792e-39
0.096223041 0.64663374 0.45583126 4.7948748e-39
0.096838534 0.646635 0.45586002 4.8870732e-39
0.097454026 0.64663625 0.45588875 4.702682e-39
0.098069511 0.64663756 0.45591748 5.0714645e-39
0.098318487 0.64563882 0.45624012 4.8870732e-39
0.098932356 0.64564013 0.45626876 4.702682e-39
0.099546239 0.64564139 0.45629743 4.7948776e-39
0.10016012 0.64564264 0.4563261 4.702682e-39
0.10077401 0.64564389 0.45635477 4.4260951e-39
0.10138787 0.64564514 0.45638344 4.5193669e-39
0.10200176 0.64564645 0.45641211 4.24278e-39
0.10223783 0.64464766 0.45673412 4.7037582e-39
0.10285009 0.64464891 0.45676273 4.5193669e-39
0.10346236 0.64465022 0.45679131 4.7948776e-39
0.10407463 0.64465147 0.45681989 4.7948776e-39
0.1046869 0.64465272 0.4568485 4.4271741e-39
0.10529916 0.64465398 0.45687708 4.4271741e-39
0.10591143 0.64465523 0.45690566 4.5193725e-39
0.1065237 0.64465648 0.45693427 4.4271769e-39
0.10713597 0.64465779 0.45696285 4.0583916e-39
0.10774823 0.64465904 0.45699143 4.0583916e-39
0.10836051 0.64466029 0.45702004 4.6115653e-39
0.10897277 0.64466155 0.45704862 4.2427828e-39
0.10958505 0.6446628 0.45707721 4.2427828e-39
0.10979857 0.64366406 0.45739818 4.4271741e-39
0.11040922 0.64366531 0.4574267 4.7948748e-39
0.11101987 0.64366657 0.45745522 4.7026792e-39
0.11163052 0.64366782 0.45748374 4.4264482e-39
0.11224118 0.64366907 0.45751223 4.3342526e-39
0.11285184 0.64367032 0.45754075 4.6108395e-39
0.1134625 0.64367157 0.45756927 4.242057e-39
0.11407316 0.64367288 0.45759779 4.241701e-39
0.11468381 0.64367414 0.45762631 4.241701e-39
0.11529448 0.64367539 0.45765483 4.149511e-39
0.11549025 0.64267653 0.45797497 4.149511e-39
0.1160993 0.64267778 0.4580034 4.149511e-39
0.11670834 0.64267904 0.45803183 4.149511e-39
0.11731739 0.64268029 0.45806029 4.0573126e-39
0.11792643 0.64268154 0.45808873 4.0573126e-39
0.11853548 0.64268279 0.45811716 3.9651169e-39
0.11914452 0.64268404 0.45814562 4.2417038e-39
0.11975357 0.64268529 0.45817405 4.0573126e-39
0.11993486 0.6416865 0.4584935 4.0573126e-39
0.1205423 0.64168775 0.45852187 4.0573126e-39
0.12114974 0.641689 0.45855024 4.0573126e-39
0.12175716 0.64169025 0.45857859 3.5052178e-39
0.1223646 0.64169151 0.45860696 3.4130222e-39
0.12297204 0.64169276 0.45863533 3.5052206e-39
0.12357948 0.64169401 0.4586637 3.5052206e-39
0.1241869 0.64169526 0.45869207 3.5052206e-39
0.12479434 0.64169651 0.45872042 3.5052206e-39
0.12540178 0.64169776 0.45874879 3.5052206e-39
0.12556532 0.64069885 0.45906743 3.413025e-39
0.12617116 0.6407001 0.45909572 3.5048647e-39
0.12677698 0.64070135 0.459124 3.5970603e-39
0.1273828 0.64070261 0.45915231 3.7818075e-39
0.12798862 0.64070386 0.45918059 3.5052206e-39
0.12859444 0.64070511 0.45920888 3.2286337e-39
0.12920026 0.6407063 0.45923716 3.3208293e-39
0.1298061 0.64070755 0.45926547 3.5052178e-39
0.13041191 0.6407088 0.45929375 3.5052178e-39
0.13055937 0.63970989 0.45961162 3.0453186e-39
0.1311636 0.63971114 0.45963985 3.1375143e-39
0.13176779 0.63971239 0.45966804 3.1375143e-39
0.13237201 0.63971364 0.45969626 2.953123e-39
0.13297622 0.6397149 0.45972449 3.3197475e-39
0.13358045 0.63971615 0.45975271 3.5041388e-39
0.13418464 0.6397174 0.4597809 3.4119432e-39
0.13478886 0.63971865 0.45980912 3.68853e-39
0.13539307 0.6397199 0.45983735 3.3208265e-39
0.1359973 0.6397211 0.45986554 3.4130222e-39
0.13660149 0.63972235 0.45989376 3.2286309e-39
0.13720571 0.6397236 0.45992199 3.1364353e-39
0.13780992 0.63972485 0.45995021 3.3208265e-39
0.13841414 0.6397261 0.4599784 2.8598484e-39
0.13901834 0.63972735 0.46000662 2.6765389e-39
0.13962255 0.63972861 0.46003485 2.6765389e-39
0.14022677 0.63972986 0.46006307 2.676183e-39
0.14083098 0.63973111 0.46009126 2.5839874e-39
0.14143519 0.63973236 0.46011949 2.6765389e-39
0.1420394 0.63973355 0.46014771 2.7687346e-39
0.14264362 0.6397348 0.46017593 2.7687346e-39
0.14324783 0.63973606 0.46020412 2.9531258e-39
0.14385204 0.63973731 0.46023235 2.7683786e-39
0.14445625 0.63973856 0.46026057 2.7683786e-39
0.14456344 0.63873959 0.46057656 2.676183e-39
0.14516602 0.63874084 0.4606047 3.0449655e-39
0.14576863 0.63874203 0.46063283 3.0449655e-39
0.14637123 0.63874328 0.46066096 2.9527699e-39
0.14697383 0.63874453 0.46068913 3.0449683e-39
0.14757644 0.63874578 0.46071726 3.0449683e-39
0.14817904 0.63874704 0.46074539 3.2293596e-39
0.14878163 0.63874829 0.46077353 3.0449683e-39
0.14938423 0.63874948 0.46080169 2.9527699e-39
0.14998683 0.63875073 0.46082982 2.676183e-39
0.15058944 0.63875198 0.46085796 3.3208293e-39
0.15067726 0.63775295 0.46117306 3.1364381e-39
0.15179464 0.63875449 0.46091422 3.6885272e-39
0.15187925 0.63775539 0.46122918 3.4119404e-39
0.15299983 0.63875693 0.46097052 3.7818019e-39
0.15308122 0.6377579 0.46128532 5.4413232e-39
0.15368222 0.63775909 0.46131337 4.0623572e-39
0.15428321 0.63776034 0.46134144 1.5730752e-39
-0.27080548 0.90967119 0.35554677 3.3215524e-39
-0.2697646 0.90967333 0.35559538 3.9651169e-39
-0.13951874 0.65114236 0.44264284 2.7662136e-39
-0.1388952 0.65114361 0.44267195 2.9506049e-39
-0.13827164 0.65114492 0.44270107 2.9509622e-39
-0.13764809 0.65114623 0.44273019 2.7665709e-39
-0.13702455 0.65114748 0.44275931 2.7665709e-39
-0.136401 0.6511488 0.44278842 2.3055928e-39
-0.13577746 0.65115005 0.44281754 2.6743781e-39
-0.1351539 0.65115136 0.44284666 2.7665737e-39
-0.13453037 0.65115261 0.44287577 2.8584092e-39
-0.13390683 0.65115392 0.44290489 2.7662136e-39
-0.13328327 0.65115517 0.44293401 2.5818224e-39
-0.13265972 0.65115649 0.44296312 2.7662136e-39
-0.13203618 0.6511578 0.44299224 2.8587694e-39
-0.13141263 0.65115905 0.44302136 2.8587694e-39
-0.13078909 0.65116036 0.44305047 2.6743781e-39
-0.13016553 0.65116161 0.44307959 2.6743781e-39
-0.12954199 0.65116292 0.44310871 2.7665737e-39
-0.12891844 0.65116417 0.44313782 2.6743781e-39
-0.12807019 0.65016675 0.44349003 2.4910659e-39
-0.12744825 0.650168 0.44351909 2.5832615e-39
-0.12682632 0.65016931 0.44354814 2.4910659e-39
-0.12620437 0.65017056 0.44357717 2.5832615e-39
-0.12558244 0.65017188 0.44360623 2.6754571e-39
-0.1249605 0.65017313 0.44363526 2.7676527e-39
-0.12412352 0.64917564 0.44398695 2.7676527e-39
-0.12350319 0.6491769 0.44401592 2.6754571e-39
-0.12288287 0.64917821 0.44404489 2.6754599e-39
-0.12226254 0.64917946 0.44407386 2.5832643e-39
-0.12164222 0.64918077 0.44410282 2.950965e-39
-0.1210219 0.64918202 0.44413179 3.1353563e-39
-0.12040157 0.64918333 0.44416076 3.4119432e-39
-0.11978125 0.64918458 0.44418973 3.68853e-39
-0.11916092 0.64918584 0.4442187 3.4119432e-39
-0.1185406 0.64918715 0.44424766 2.950965e-39
-0.11792027 0.6491884 0.44427663 2.7665737e-39
-0.11729995 0.64918971 0.4443056 2.8587694e-39
-0.11667963 0.64919096 0.44433457 2.9506049e-39
-0.1160593 0.64919227 0.44436353 2.9506049e-39
-0.11543898 0.64919353 0.4443925 2.8587694e-39
-0.11481865 0.64919484 0.44442147 2.8587694e-39
-0.11419833 0.64919609 0.44445044 2.7676527e-39
-0.113578 0.6491974 0.44447941 2.6754571e-39
-0.11295768 0.64919865 0.44450837 2.6754571e-39
-0.11233736 0.6491999 0.44453734 2.6754571e-39
-0.11171703 0.64920121 0.44456631 2.7665737e-39
-0.11109671 0.64920247 0.44459528 2.6743781e-39
-0.11047638 0.64920378 0.44462425 2.6743781e-39
-0.10985606 0.64920503 0.44465321 2.6743781e-39
-0.10923573 0.64920634 0.44468218 2.5832615e-39
-0.10861541 0.64920759 0.44471115 2.5832615e-39
-0.10799509 0.6492089 0.44474012 2.5832615e-39
-0.10737476 0.64921016 0.44476908 2.6754571e-39
-0.10675444 0.64921141 0.44479805 2.6754571e-39
-0.10613411 0.64921272 0.44482702 2.7676527e-39
-0.10551379 0.64921397 0.44485599 2.8587666e-39
-0.10489346 0.64921528 0.44488496 2.8587666e-39
-0.10427314 0.64921653 0.44491392 2.6754543e-39
-0.10365282 0.64921784 0.44494289 2.5832587e-39
-0.10303249 0.6492191 0.44497186 2.5832615e-39
-0.10241216 0.64922041 0.44500083 2.5832615e-39
-0.10179184 0.64922166 0.4450298 2.7665737e-39
-0.10117152 0.64922297 0.44505876 2.7665737e-39
-0.10055119 0.64922422 0.44508773 2.9506049e-39
-0.099930868 0.64922547 0.4451167 2.9506049e-39
-0.099310547 0.64922678 0.44514567 3.1349989e-39
-0.098690219 0.64922804 0.4451746 3.0428033e-39
-0.098069891 0.64922935 0.44520357 3.0428005e-39
-0.097449571 0.6492306 0.44523254 2.8584092e-39
-0.09682925 0.64923191 0.44526151 2.9506049e-39
-0.096208923 0.64923316 0.44529048 3.1349961e-39
-0.095588595 0.64923447 0.44531944 3.1349961e-39
-0.094968274 0.64923573 0.44534841 3.0428005e-39
-0.094347946 0.64923704 0.44537738 2.9506077e-39
-0.093727626 0.64923829 0.44540635 2.858412e-39
-0.093107298 0.64923954 0.44543532 2.7665766e-39
-0.092486978 0.64924085 0.44546428 3.0431634e-39
-0.09186665 0.6492421 0.44549325 2.8587722e-39
-0.091246329 0.64924341 0.44552222 3.0431634e-39
-0.090626001 0.64924467 0.44555119 2.8587694e-39
-0.090005681 0.64924598 0.44558015 2.950965e-39
-0.089510173 0.6502462 0.44529068 2.950965e-39
-0.088888235 0.65024751 0.44531974 2.950965e-39
-0.088266298 0.65024877 0.44534877 2.9509678e-39
-0.087644368 0.65025008 0.44537783 3.0431634e-39
-0.087022431 0.65025133 0.44540685 3.3193944e-39
-0.086400494 0.65025264 0.44543591 3.3193944e-39
-0.085778557 0.65025389 0.44546494 3.3197503e-39
-0.085156627 0.6502552 0.445494 3.5963372e-39
-0.08453469 0.65025645 0.44552302 3.5959743e-39
-0.083912753 0.65025777 0.44555208 3.411583e-39
-0.083290815 0.65025908 0.44558111 3.4115802e-39
-0.082668886 0.65026033 0.44561017 3.4115802e-39
-0.082152426 0.65126061 0.44532168 3.3197447e-39
-0.08152888 0.65126187 0.4453508 3.3197447e-39
-0.080905333 0.65126318 0.44537991 3.3197447e-39
-0.080281787 0.65126449 0.44540903 3.5963316e-39
-0.07965824 0.65126574 0.44543815 3.4119432e-39
-0.079034694 0.65126705 0.44546726 3.5041388e-39
-0.078411147 0.6512683 0.44549638 3.3197475e-39
-0.0777876 0.65126961 0.4455255 3.5041388e-39
-0.077164054 0.65127087 0.44555461 3.5041388e-39
-0.076540507 0.65127218 0.44558373 3.5041388e-39
