# .PCD v0.7 - Point Cloud Data file format
VERSION 0.7
FIELDS x y z rgb
SIZE 4 4 4 4
TYPE F F F F
COUNT 1 1 1 1
WIDTH 1022
HEIGHT 1
VIEWPOINT 0 0 0 1 0 0 0
POINTS 1022
DATA ascii
0.10484731 0.64119625 0.45326483 7.191601e-39
0.10422936 0.64116168 0.45345274 7.0072098e-39
0.10361141 0.64112711 0.45364061 7.191601e-39
0.10284528 0.64197797 0.45434687 7.3759923e-39
0.10222579 0.64194334 0.45453522 7.7447748e-39
0.1016063 0.64190865 0.45472357 8.3901442e-39
0.10083401 0.64275914 0.45543167 8.1135573e-39
0.10021298 0.64272439 0.4556205 8.1135573e-39
0.099591956 0.64268965 0.45580932 8.6667311e-39
0.09897092 0.6426549 0.45599815 9.1277093e-39
0.098190926 0.64350498 0.45670861 9.3121005e-39
0.097568348 0.64347017 0.45689791 9.4964918e-39
0.096783742 0.64431995 0.45760974 9.4046563e-39
0.09615963 0.64428502 0.45779952 9.8656344e-39
0.09537039 0.64513457 0.45851275 9.3124607e-39
0.094744734 0.64509958 0.45870301 9.3124607e-39
0.093950875 0.64594889 0.45941767 9.4046563e-39
0.092984185 0.64768219 0.46065816 9.0358738e-39
0.092182621 0.64853108 0.46137518 9.3121005e-39
0.090221509 0.6519962 0.46386459 8.8511224e-39
0.089407623 0.65284431 0.46458533 8.7589268e-39
0.088235743 0.65545994 0.46636152 8.943318e-39
0.087412611 0.65630758 0.46708509 8.8511224e-39
0.086586386 0.65715504 0.46780959 9.3110215e-39
0.085939161 0.6571188 0.46800637 9.6798041e-39
0.085108317 0.65796608 0.4687323 1.0509921e-38
0.084274389 0.65881312 0.46945912 1.0602116e-38
0.083624072 0.6587767 0.46965685 9.8638324e-39
0.082973763 0.65874034 0.46985459 9.1262673e-39
0.082133673 0.65958703 0.47058332 8.7574848e-39
0.081481814 0.65955055 0.47078151 9.0340717e-39
0.080829963 0.65951407 0.47097972 9.0347906e-39
0.079983711 0.66036046 0.47171029 9.3113775e-39
0.079134367 0.66120666 0.47244182 9.2191818e-39
0.078479439 0.66117001 0.47264096 9.3113775e-39
0.077625476 0.66201591 0.47337389 1.0325529e-38
0.076768443 0.66286165 0.47410777 1.0141138e-38
0.075908318 0.66370726 0.47484258 9.9574699e-39
0.075045116 0.66455269 0.47557831 1.0141861e-38
0.074384011 0.66451567 0.47577932 1.023406e-38
0.17290451 0.64120221 0.43130845 7.3749161e-39
0.17229272 0.64116794 0.43149447 8.2968724e-39
0.17165758 0.64023924 0.43121269 9.0355192e-39
0.17104733 0.64020514 0.43139824 9.7730843e-39
0.17043708 0.64017099 0.43158379 7.0068595e-39
0.16982684 0.64013684 0.43176934 3.4112299e-39
0.16921659 0.64010268 0.43195489 3.7800124e-39
0.16860634 0.64006853 0.43214044 3.6878168e-39
0.16799609 0.64003438 0.43232599 3.6878168e-39
0.16737328 0.63910645 0.43204048 3.5956212e-39
0.16676457 0.63907236 0.43222558 3.4115858e-39
0.16615587 0.63903832 0.43241066 3.5037815e-39
0.16554718 0.63900423 0.43259573 3.4115858e-39
0.16493846 0.6389702 0.4327808 3.2271946e-39
0.16432975 0.63893616 0.43296587 3.2271946e-39
0.16371773 0.63800877 0.43267709 3.4115858e-39
0.16311057 0.6379748 0.43286172 3.0428033e-39
0.16250341 0.63794082 0.43304631 3.1349989e-39
0.16189624 0.63790685 0.43323094 3.1349989e-39
0.16128907 0.63787287 0.43341553 3.1349989e-39
0.16068192 0.6378389 0.43360016 3.2271946e-39
0.16007474 0.63780493 0.43378475 3.1349989e-39
0.15946758 0.63777095 0.43396938 3.1349989e-39
0.15886042 0.63773698 0.43415397 3.2271946e-39
0.15825325 0.637703 0.4343386 3.2271946e-39
0.15764609 0.63766903 0.4345232 3.2271946e-39
0.15703893 0.63763505 0.43470782 3.1349989e-39
0.15643176 0.63760108 0.43489242 3.1349989e-39
0.1558246 0.6375671 0.43507704 3.1349989e-39
0.15521742 0.63753313 0.43526164 3.2271946e-39
0.15461026 0.63749915 0.43544626 3.1349989e-39
0.1540031 0.63746518 0.43563086 3.0428033e-39
0.15339594 0.6374312 0.43581548 2.9506077e-39
0.15278877 0.63739723 0.43600008 3.2271946e-39
0.15218161 0.63736326 0.4361847 3.4115858e-39
0.15157445 0.63732934 0.4363693 3.2271946e-39
0.15096729 0.63729537 0.43655393 3.4115858e-39
0.15036012 0.63726139 0.43673855 3.2271946e-39
0.14975296 0.63722742 0.43692315 3.4115858e-39
0.14914578 0.63719344 0.43710777 3.5037815e-39
0.14853862 0.63715947 0.43729237 3.1349989e-39
0.14793146 0.63712549 0.43747699 3.0428033e-39
0.14732429 0.63709152 0.43766159 3.2271946e-39
0.14671713 0.63705754 0.43784621 3.2271946e-39
0.14610997 0.63702357 0.43803081 3.2271946e-39
0.14550281 0.63698959 0.43821543 3.2271946e-39
0.14489564 0.63695562 0.43840003 3.1349989e-39
0.14428847 0.63692164 0.43858466 3.4115858e-39
0.14368132 0.63688767 0.43876925 3.4115858e-39
0.14307414 0.63685369 0.43895388 3.4115858e-39
0.14246698 0.63681972 0.43913847 3.2268386e-39
0.14185981 0.63678575 0.4393231 3.2268386e-39
0.14119895 0.63764197 0.43999889 3.4112299e-39
0.14059025 0.63760787 0.440184 3.5034255e-39
0.13998154 0.63757384 0.44036907 3.5034255e-39
0.13937284 0.63753974 0.44055414 3.5956212e-39
0.13876413 0.63750571 0.44073921 3.5956212e-39
0.13815543 0.63747168 0.44092432 3.5956212e-39
0.13754672 0.63743758 0.44110939 3.5959771e-39
0.13693802 0.63740355 0.44129446 3.6881727e-39
0.13632931 0.63736945 0.44147953 3.6881727e-39
0.13572061 0.63733542 0.44166461 3.872564e-39
0.1351119 0.63730139 0.44184971 3.872564e-39
0.13450319 0.63726729 0.44203478 3.872564e-39
0.13389449 0.63723326 0.44221985 4.1491509e-39
0.13328578 0.63719916 0.44240493 4.9789115e-39
0.13267708 0.63716513 0.44259003 5.3476913e-39
0.13206838 0.63713109 0.4427751 4.5179306e-39
0.13145967 0.637097 0.44296017 4.2413437e-39
0.13085096 0.63706297 0.44314525 3.8725612e-39
0.13024226 0.63702887 0.44333035 3.8725612e-39
0.12963355 0.63699484 0.44351542 3.8725612e-39
0.12902485 0.6369608 0.44370049 3.8725612e-39
0.12841614 0.63692671 0.44388556 3.8725612e-39
0.12780744 0.63689268 0.44407067 4.0569524e-39
0.12710959 0.63774675 0.4447577 4.1491481e-39
0.12649934 0.6377126 0.44494325 4.2413437e-39
0.12588909 0.63767844 0.4451288 4.3335393e-39
0.12527885 0.63764429 0.44531435 4.3335393e-39
0.12466861 0.6376102 0.4454999 4.425735e-39
0.12405836 0.63757604 0.44568545 4.5179306e-39
0.12344811 0.63754189 0.445871 4.7945175e-39
0.12273794 0.63839531 0.44656181 4.8867131e-39
0.12212615 0.6383611 0.44674781 5.1633e-39
0.12151436 0.63832682 0.44693384 5.6242781e-39
0.12090258 0.63829261 0.44711986 5.4398869e-39
0.12029079 0.6382584 0.44730586 5.3476913e-39
0.119679 0.63822412 0.44749188 5.5320825e-39
0.11895804 0.63907695 0.44818595 5.6242781e-39
0.11834471 0.63904262 0.44837245 5.6242781e-39
0.11773138 0.63900828 0.44855893 5.5320825e-39
0.11711805 0.63897401 0.44874543 5.6242781e-39
0.11650473 0.63893968 0.4489319 5.6242781e-39
0.11577452 0.63979197 0.4496288 5.7164738e-39
0.11515965 0.63975751 0.44981575 5.9930607e-39
0.11454478 0.63972312 0.4500027 6.0852563e-39
0.11392991 0.63968873 0.45018965 6.0852563e-39
0.11331504 0.63965434 0.4503766 6.0852563e-39
0.11257559 0.64050609 0.45107633 6.0852563e-39
0.11195917 0.64047164 0.45126376 5.9930607e-39
0.11134277 0.64043713 0.45145115 6.1774519e-39
0.11072635 0.64040262 0.45163858 5.9930607e-39
0.11010994 0.64036816 0.45182601 6.1774519e-39
0.10949353 0.64033365 0.45201343 6.3618432e-39
0.1087433 0.64118481 0.45271641 6.4540388e-39
0.10812534 0.64115024 0.45290431 6.6384301e-39
0.10750739 0.64111567 0.45309219 6.454036e-39
0.10688943 0.64108109 0.45328009 7.0072098e-39
0.10627149 0.64104652 0.45346797 7.0072098e-39
0.10565353 0.64101195 0.45365587 7.0072098e-39
0.10503558 0.64097738 0.45384374 7.191601e-39
0.10427301 0.64182782 0.4545505 7.191601e-39
0.10365352 0.64179319 0.45473886 7.3759923e-39
0.10303403 0.6417585 0.45492721 7.5603836e-39
0.10241453 0.64172387 0.45511559 7.7447748e-39
0.10179505 0.64168918 0.45530394 8.205753e-39
0.10102323 0.64253914 0.45601347 8.6667311e-39
0.10040219 0.64250439 0.4562023 8.943318e-39
0.099781163 0.64246964 0.45639113 8.943318e-39
0.099003181 0.64331925 0.45710257 9.3121005e-39
0.098380603 0.64328444 0.45729184 9.6808831e-39
0.097598001 0.64413381 0.45800468 9.7730787e-39
0.096812315 0.64498293 0.45871842 9.6808831e-39
0.096186668 0.64494795 0.45890868 9.7730787e-39
0.095396347 0.6457969 0.45962384 9.4968519e-39
0.094602965 0.64664561 0.46033993 9.4046563e-39
0.09380649 0.6474942 0.46105701 9.220265e-39
0.092837662 0.64922625 0.46230131 9.220265e-39
0.090881519 0.65268934 0.46479556 9.1277093e-39
0.090068087 0.65353698 0.46551779 8.8511224e-39
0.088900708 0.65615106 0.46729735 8.3901442e-39
0.088078044 0.65699816 0.46802235 8.7589268e-39
0.087430812 0.65696198 0.46821913 8.6667311e-39
0.086603515 0.65780884 0.46894556 9.4957687e-39
0.085954748 0.65777254 0.46914282 9.8645512e-39
0.085122831 0.65861911 0.46987063 1.0417722e-38
0.084472522 0.65858275 0.47006837 9.9567441e-39
0.083635978 0.65942907 0.4707976 9.219179e-39
0.082984127 0.6593926 0.47099578 9.0347878e-39
0.082332276 0.65935612 0.471194 8.8503993e-39
0.08148957 0.66020209 0.47192508 8.8503993e-39
0.080836177 0.66016555 0.47212374 8.9425949e-39
0.080182776 0.66012901 0.4723224 9.2191818e-39
0.079333909 0.66097462 0.47305539 9.4957687e-39
0.078481965 0.66182011 0.4737893 1.0233334e-38
0.077825487 0.6617834 0.47398892 1.0786152e-38
0.076968916 0.66262859 0.4747242 1.0232978e-38
0.07610926 0.66347361 0.47546047 9.7730815e-39
0.075246528 0.6643185 0.47619766 9.9574727e-39
0.1730909 0.64098549 0.43188158 9.4964946e-39
0.17245375 0.64005721 0.43159884 9.404299e-39
0.1718435 0.64002311 0.43178439 8.6667339e-39
0.17123325 0.63998896 0.43196994 7.4681907e-39
0.170623 0.63995481 0.43215549 7.7444245e-39
0.17001276 0.63992065 0.43234104 5.8083163e-39
0.16940251 0.6398865 0.43252659 3.4112299e-39
0.16879226 0.63985234 0.43271214 3.7800124e-39
0.16818202 0.63981825 0.43289769 3.6878168e-39
0.16757177 0.6397841 0.43308324 3.7800124e-39
0.16695003 0.63885677 0.43279582 3.6878168e-39
0.16634132 0.63882267 0.4329809 3.5956212e-39
0.16573262 0.63878864 0.433166 3.4115858e-39
0.16512391 0.63875455 0.43335107 3.4115858e-39
0.16451521 0.63872051 0.43353614 3.4115858e-39
0.16390271 0.63779366 0.4332459 3.2271946e-39
0.16329555 0.63775969 0.43343052 3.2271946e-39
0.16268839 0.63772571 0.43361512 3.1349989e-39
0.16208123 0.63769174 0.43379974 3.1349989e-39
0.16147406 0.63765776 0.43398434 3.1349989e-39
0.1608669 0.63762379 0.43416896 3.2271946e-39
0.16025972 0.63758981 0.43435356 3.1349989e-39
0.15965256 0.63755584 0.43453819 2.9506077e-39
0.1590454 0.63752186 0.43472278 3.0428033e-39
0.15843824 0.63748789 0.43490741 3.2271946e-39
0.15783107 0.63745391 0.43509203 3.1349989e-39
0.15722391 0.63742 0.43527663 3.2271946e-39
0.15661675 0.63738602 0.43546125 3.4115858e-39
0.15600958 0.63735205 0.43564585 3.2271946e-39
0.15540241 0.63731807 0.43583047 3.2271946e-39
0.15479524 0.6372841 0.43601507 3.1349989e-39
0.15418808 0.63725013 0.43619969 3.2271946e-39
0.15358092 0.63721615 0.43638429 3.1349989e-39
0.15297376 0.63718218 0.43656892 3.0428033e-39
0.15236659 0.6371482 0.43675351 3.1349989e-39
0.15175943 0.63711423 0.43693814 3.1349989e-39
0.15115227 0.63708025 0.43712273 3.2271946e-39
0.15054511 0.63704628 0.43730736 3.2271946e-39
0.14993794 0.6370123 0.43749195 3.1349989e-39
0.14933077 0.63697833 0.43767658 3.2271946e-39
0.1487236 0.63694435 0.43786117 3.2271946e-39
0.14811644 0.63691038 0.4380458 3.4115858e-39
0.14750928 0.6368764 0.4382304 3.4115858e-39
0.14690211 0.63684243 0.43841502 3.4115858e-39
0.14629495 0.63680845 0.43859962 3.4115858e-39
0.14568779 0.63677448 0.43878424 3.1349989e-39
0.14508063 0.63674057 0.43896884 3.1349989e-39
0.14447346 0.63670659 0.43915346 3.4115858e-39
0.14381923 0.63756251 0.43982884 3.5037815e-39
0.14321052 0.63752848 0.44001392 3.5037815e-39
0.14260182 0.63749444 0.44019899 3.4112299e-39
0.14199311 0.63746035 0.44038409 3.5034255e-39
0.14138441 0.63742632 0.44056916 3.5956212e-39
0.1407757 0.63739222 0.44075423 3.5956212e-39
0.140167 0.63735819 0.44093931 3.5037857e-39
0.13955829 0.63732415 0.44112441 3.5959813e-39
0.13894959 0.63729006 0.44130948 3.5037857e-39
0.13834088 0.63725603 0.44149455 3.5959813e-39
0.13773218 0.63722193 0.44167963 3.6878168e-39
0.13712347 0.6371879 0.44186473 3.7800124e-39
0.13651477 0.63715386 0.4420498 3.7803683e-39
0.13590606 0.63711977 0.44223487 3.7803683e-39
0.13529734 0.63708574 0.44241995 3.872564e-39
0.13468865 0.6370517 0.44260502 4.5179334e-39
0.13407995 0.63701761 0.44279012 4.9789087e-39
0.13347124 0.63698357 0.44297519 5.0711044e-39
0.13286252 0.63694948 0.44316027 4.425735e-39
0.13225383 0.63691545 0.44334534 4.2413437e-39
0.13164511 0.63688141 0.44353044 4.0569524e-39
0.13103642 0.63684732 0.44371551 3.8725612e-39
0.13042772 0.63681328 0.44390059 4.1491481e-39
0.12981901 0.63677919 0.44408566 4.1491481e-39
0.12921029 0.63674515 0.44427076 4.0569524e-39
0.1286016 0.63671112 0.44445583 4.0569524e-39
0.12790576 0.63756472 0.44514385 4.0569524e-39
0.12729551 0.63753057 0.4453294 4.3335393e-39
0.12668528 0.63749641 0.44551495 4.5179306e-39
0.12607503 0.63746226 0.4457005 4.3335393e-39
0.12546478 0.63742816 0.44588605 4.425735e-39
0.12485453 0.63739401 0.44607159 4.7023218e-39
0.12414791 0.63824701 0.44676292 4.7945175e-39
0.12353612 0.6382128 0.44694892 4.9789087e-39
0.12292433 0.63817859 0.44713494 5.1633e-39
0.12231255 0.63814437 0.44732097 5.1633e-39
0.12170075 0.6381101 0.44750696 5.3476913e-39
0.12108897 0.63807589 0.44769299 5.9930607e-39
0.12037156 0.63892829 0.44838756 5.716471e-39
0.11975823 0.63889396 0.44857407 5.6242753e-39
0.1191449 0.63885969 0.44876054 5.5320797e-39
0.11853157 0.63882536 0.44894704 5.5320797e-39
0.11791824 0.63879102 0.44913352 5.4398841e-39
0.11719158 0.63964295 0.44983092 5.716471e-39
0.11657672 0.6396085 0.45001787 5.8086666e-39
0.11596185 0.63957411 0.45020482 5.8086666e-39
0.11534698 0.63953972 0.45039177 5.8086666e-39
0.11473211 0.63950533 0.45057872 5.9930579e-39
0.11399621 0.64035672 0.45127895 5.8086694e-39
0.11337979 0.64032221 0.45146638 5.9930607e-39
0.11276339 0.64028776 0.45165378 5.9012252e-39
0.11214697 0.64025325 0.45184121 5.6246383e-39
0.11153056 0.64021879 0.45202863 5.9012252e-39
0.11091416 0.64018428 0.45221606 6.1778121e-39
0.11016747 0.64103508 0.45291954 6.1778121e-39
0.10954951 0.64100051 0.45310745 6.2700077e-39
0.10893156 0.64096588 0.45329532 6.3622033e-39
0.10831361 0.64093131 0.45348322 6.6387902e-39
0.10769565 0.64089674 0.4536711 6.8231815e-39
0.10707771 0.64086217 0.453859 6.9153771e-39
0.10645976 0.6408276 0.45404688 7.0997656e-39
0.10570073 0.64167774 0.45475414 7.3763524e-39
0.10508125 0.64164305 0.45494249 7.4685481e-39
0.10446175 0.64160842 0.45513085 7.3763524e-39
0.10384226 0.64157373 0.45531923 7.5607437e-39
0.10322277 0.6415391 0.45550758 7.6529393e-39
0.10245451 0.64238864 0.45621762 7.9295262e-39
0.10183347 0.64235389 0.45640644 8.2983087e-39
0.10121243 0.64231914 0.45659527 8.7589268e-39
0.1005914 0.64228439 0.4567841 9.1277093e-39
0.099815428 0.64313358 0.45749652 9.4042962e-39
0.099192858 0.64309871 0.4576858 9.4964918e-39
0.098412268 0.6439476 0.45839959 9.6808831e-39
0.097628593 0.64479631 0.45911434 1.0049666e-38
0.096841834 0.64564484 0.45983002 9.9574699e-39
0.096051998 0.64649326 0.46054661 9.7730787e-39
0.095259078 0.64734143 0.46126419 9.4046563e-39
0.094463073 0.64818949 0.46198267 9.0358738e-39
0.091545537 0.65338165 0.46572852 9.1277093e-39
0.090388812 0.65599459 0.4675096 9.0355136e-39
0.089569695 0.65684134 0.46823511 8.7589268e-39
0.088922463 0.6568051 0.46843189 8.4823399e-39
0.08809872 0.6576516 0.46915883 8.6667311e-39
0.087449946 0.6576153 0.46935609 8.943318e-39
0.086801179 0.657579 0.46955335 9.7723556e-39
0.085971273 0.65842509 0.47028214 9.9567469e-39
0.085320957 0.65838873 0.47047988 9.6801572e-39
0.084486432 0.65923464 0.47121006 8.9425921e-39
0.083834581 0.65919816 0.47140828 9.0347878e-39
0.083182722 0.65916169 0.47160646 9.219179e-39
0.082342029 0.66000718 0.47233853 9.0347906e-39
0.081688643 0.65997064 0.47253719 9.1269862e-39
0.080843322 0.66081589 0.47327068 9.1269862e-39
0.080188386 0.6607793 0.47346982 9.3113775e-39
0.079533443 0.66074264 0.47366896 1.060176e-38
0.078681976 0.66158754 0.47440431 1.1431521e-38
0.077827409 0.66243225 0.4751406 1.0787231e-38
0.076969765 0.66327685 0.47587782 1.0879426e-38
0.07631021 0.66323996 0.47607836 1.0602842e-38
0.17202942 0.63980693 0.43235609 7.5593074e-39
0.17141917 0.63977277 0.43254164 7.7436986e-39
0.17080893 0.63973862 0.43272719 7.5603892e-39
0.17019868 0.63970447 0.43291274 7.099411e-39
0.16958843 0.63967031 0.43309829 4.7941643e-39
0.16897818 0.63963622 0.43328384 3.4112299e-39
0.16836794 0.63960207 0.43346938 3.6878168e-39
0.1677577 0.63956791 0.43365493 3.872208e-39
0.16713549 0.63864112 0.43336609 3.6878168e-39
0.16652678 0.63860703 0.43355116 3.7800124e-39
0.16591808 0.63857299 0.43373623 3.5034255e-39
0.16530937 0.63853896 0.43392131 3.2268386e-39
0.16470066 0.63850486 0.43410641 3.2271946e-39
0.16409196 0.63847083 0.43429148 3.4115858e-39
0.16348054 0.63754457 0.43399933 3.4115858e-39
0.16287337 0.6375106 0.43418396 3.2271946e-39
0.16226621 0.63747668 0.43436855 3.0428033e-39
0.16165905 0.63744271 0.43455318 2.9506077e-39
0.16105188 0.63740873 0.43473777 3.1349989e-39
0.16044471 0.63737476 0.4349224 3.0428033e-39
0.15983754 0.63734078 0.43510699 3.0428033e-39
0.15923038 0.63730681 0.43529162 3.0428033e-39
0.15862322 0.63727283 0.43547621 3.1349989e-39
0.15801606 0.63723886 0.43566084 3.0428033e-39
0.15740889 0.63720489 0.43584543 3.5037815e-39
0.15680173 0.63717091 0.43603006 3.4115858e-39
0.15619457 0.63713694 0.43621466 3.2271946e-39
0.1555874 0.63710296 0.43639928 3.4115858e-39
0.15498023 0.63706899 0.43658388 3.4115858e-39
0.15437306 0.63703501 0.4367685 3.2271946e-39
0.1537659 0.63700104 0.4369531 3.4115858e-39
0.15315874 0.63696706 0.43713772 3.1349989e-39
0.15255158 0.63693309 0.43732232 3.0428033e-39
0.15194441 0.63689911 0.43750694 3.0428033e-39
0.15133725 0.63686514 0.43769154 3.1349989e-39
0.15073009 0.63683116 0.43787616 3.2271946e-39
0.15012293 0.63679725 0.43806076 3.2271946e-39
0.14951575 0.63676327 0.43824539 3.1349989e-39
0.14890859 0.6367293 0.43842998 3.2271946e-39
0.14830142 0.63669533 0.43861461 3.2271946e-39
0.14769426 0.63666135 0.4387992 3.4115858e-39
0.1470871 0.63662738 0.43898383 3.4115858e-39
0.14643951 0.63748312 0.43965879 3.5037815e-39
0.1458308 0.63744909 0.43984386 3.1349989e-39
0.1452221 0.63741505 0.44002894 3.4115858e-39
0.14461339 0.63738096 0.44021401 3.4115858e-39
0.14400469 0.63734692 0.44039911 3.2271946e-39
0.14339598 0.63731283 0.44058418 3.5959771e-39
0.14278728 0.6372788 0.44076926 3.5034255e-39
0.14217857 0.63724476 0.44095433 3.5034255e-39
0.14156985 0.63721067 0.4411394 3.5037857e-39
0.14096116 0.63717663 0.4413245 3.5037857e-39
0.14035244 0.63714254 0.44150957 3.5037857e-39
0.13974375 0.6371085 0.44169465 3.5959813e-39
0.13913503 0.63707447 0.44187972 3.6881769e-39
0.13852634 0.63704038 0.44206482 3.5959813e-39
0.13791762 0.63700634 0.44224989 3.5959813e-39
0.13730893 0.63697225 0.44243497 3.7803726e-39
0.13670021 0.63693821 0.44262004 4.1491509e-39
0.13609152 0.63690418 0.44280514 4.1491509e-39
0.1354828 0.63687009 0.44299021 4.2413465e-39
0.13487411 0.63683605 0.44317529 4.8867159e-39
0.13426539 0.63680196 0.44336036 4.8867131e-39
0.13365668 0.63676792 0.44354546 4.3335393e-39
0.13304798 0.63673389 0.44373053 4.3324603e-39
0.13243929 0.6366998 0.44391561 4.3324603e-39
0.13183057 0.63666576 0.44410068 4.0558734e-39
0.13122186 0.63663167 0.44428575 4.2402647e-39
0.13061316 0.63659763 0.44447085 4.424656e-39
0.13000445 0.6365636 0.44465593 4.5168516e-39
0.12939575 0.63652951 0.444841 4.0558734e-39
0.12870193 0.63738269 0.44553 4.2402647e-39
0.12809168 0.63734853 0.44571555 4.2413437e-39
0.12748143 0.63731438 0.4459011 4.425735e-39
0.1268712 0.63728023 0.44608665 4.7023218e-39
0.12626095 0.63724613 0.44627219 4.8867131e-39
0.1256507 0.63721198 0.44645774 4.8867131e-39
0.12494608 0.63806456 0.44715002 4.9789087e-39
0.1243343 0.63803029 0.44733605 5.1633e-39
0.12372251 0.63799608 0.44752207 5.5320825e-39
0.12311072 0.63796186 0.4477081 5.1633e-39
0.12249894 0.63792759 0.4478941 5.1633e-39
0.12178507 0.63877964 0.44858921 5.4398841e-39
0.12117175 0.63874537 0.44877568 5.716471e-39
0.12055842 0.63871104 0.44896215 6.0852535e-39
0.11994509 0.6386767 0.44914865 5.716471e-39
0.11933176 0.63864237 0.44933513 5.6242753e-39
0.11860866 0.63949394 0.45003304 5.6242753e-39
0.11799379 0.63945949 0.45021999 5.6242753e-39
0.11737892 0.6394251 0.45040694 5.716471e-39
0.11676405 0.63939071 0.45059389 5.8086666e-39
0.11614918 0.63935632 0.45078084 5.8086666e-39
0.11553431 0.63932192 0.45096782 6.0852535e-39
0.11480042 0.64017284 0.45166901 6.2696447e-39
0.11418401 0.64013839 0.45185643 6.0852535e-39
0.11356759 0.64010388 0.45204383 5.8086666e-39
0.11295119 0.64006937 0.45223126 5.7168311e-39
0.11233478 0.64003491 0.45241868 5.9012224e-39
0.11159164 0.64088529 0.45312268 6.1778093e-39
0.11097369 0.64085072 0.45331058 6.2700049e-39
0.11035573 0.64081615 0.45349845 6.8231787e-39
0.10973778 0.64078158 0.45368636 6.8231787e-39
0.10911983 0.64074701 0.45387423 6.5465918e-39
0.10850188 0.64071244 0.45406213 6.8231787e-39
0.10788393 0.64067787 0.45425004 6.9153743e-39
0.10726598 0.6406433 0.45443791 6.9153743e-39
0.10650897 0.6414929 0.45514613 7.2841568e-39
0.10588948 0.64145827 0.45533451 7.5607437e-39
0.10526998 0.64142358 0.45552287 7.4685481e-39
0.10465049 0.64138895 0.45571122 7.5607437e-39
0.104031 0.64135426 0.45589957 7.745135e-39
0.10326474 0.64220339 0.45661059 8.1139175e-39
0.10264371 0.64216864 0.45679942 8.5748956e-39
0.10202269 0.64213389 0.45698825 8.8514825e-39
0.10140164 0.64209914 0.45717707 8.8514825e-39
0.10062768 0.64294785 0.45789045 9.4968519e-39
0.10000511 0.64291304 0.45807976 9.7730787e-39
0.099226534 0.64376146 0.45879453 9.7730787e-39
0.098444872 0.64460969 0.45951024 9.6808831e-39
0.097501032 0.64634085 0.46075329 9.6808831e-39
0.096711665 0.64718872 0.46147138 9.4964918e-39
0.095757037 0.64891928 0.46271771 9.4042962e-39
0.095123678 0.64888382 0.46291029 9.220265e-39
0.09366405 0.65326214 0.46574432 8.9436781e-39
0.093189783 0.65234357 0.46541047 8.9440341e-39
0.092045248 0.65495557 0.46719262 8.7596428e-39
0.091231227 0.65580201 0.46791816 9.0347906e-39
0.090242699 0.65753067 0.46917483 9.2191818e-39
0.089593932 0.65749437 0.46937209 8.8503993e-39
0.088770658 0.65834028 0.47010043 8.8503993e-39
0.088120341 0.65830392 0.47029817 8.9425949e-39
0.087470025 0.6582675 0.47049591 9.5879644e-39
0.086819716 0.65823114 0.47069362 9.8645512e-39
0.085988738 0.65907663 0.47142434 9.9567469e-39
0.085336886 0.65904015 0.47162256 9.4957687e-39
0.084685028 0.65900367 0.47182074 8.9425949e-39
0.084033176 0.65896726 0.47201896 9.2191818e-39
0.083194494 0.65981227 0.47275198 9.5879644e-39
0.082541101 0.65977573 0.47295067 9.3113775e-39
0.081887707 0.6597392 0.47314933 9.4957687e-39
0.081042856 0.66058391 0.47388425 9.7723556e-39
0.080387928 0.66054726 0.47408339 1.0417725e-38
0.079538457 0.66139174 0.47481972 1.0695035e-38
0.078881979 0.66135496 0.47501934 1.0971622e-38
0.078027889 0.6621992 0.47575706 1.1248212e-38
0.077369869 0.66216236 0.47595713 1.1248212e-38
0.17224011 0.64048356 0.43339992 7.2827233e-39
0.1716051 0.63955659 0.43311334 7.3749189e-39
0.17099485 0.63952243 0.43329889 8.2979542e-39
0.1703846 0.63948828 0.43348444 9.4964974e-39
0.16977435 0.63945413 0.43366998 1.0418454e-38
0.16916411 0.63942003 0.43385553 5.1633028e-39
0.16855386 0.63938588 0.43404108 3.872208e-39
0.16794363 0.63935173 0.43422663 3.872208e-39
0.16732094 0.63842547 0.43393633 3.6878168e-39
0.16671224 0.63839144 0.4341214 3.7800124e-39
0.16610353 0.63835734 0.4343065 3.5956212e-39
0.16549483 0.63832331 0.43449157 3.4112299e-39
0.16488612 0.63828921 0.43467665 3.4112299e-39
0.1642774 0.63825518 0.43486172 3.2268386e-39
0.16366871 0.63822114 0.43504682 3.4115858e-39
0.16305836 0.63729554 0.43475276 3.2271946e-39
0.16245119 0.63726157 0.43493736 3.5037815e-39
0.16184403 0.63722759 0.43512198 2.9506077e-39
0.16123687 0.63719362 0.43530658 2.9506077e-39
0.16062969 0.63715965 0.4354912 3.0428033e-39
0.16002253 0.63712567 0.4356758 3.1349989e-39
0.15941536 0.6370917 0.43586043 3.1349989e-39
0.1588082 0.63705772 0.43604502 3.1349989e-39
0.15820104 0.63702375 0.43622965 3.1349989e-39
0.15759388 0.63698977 0.43641424 3.5959771e-39
0.15698671 0.6369558 0.43659887 3.1349989e-39
0.15637955 0.63692182 0.43678346 3.0428033e-39
0.15577239 0.63688791 0.43696809 3.1349989e-39
0.15516521 0.63685393 0.43715268 3.2271946e-39
0.15455805 0.63681996 0.43733731 3.2271946e-39
0.15395088 0.63678598 0.4375219 3.2271946e-39
0.15334372 0.63675201 0.43770653 3.0428033e-39
0.15273656 0.63671803 0.43789113 3.1349989e-39
0.1521294 0.63668406 0.43807575 3.0428033e-39
0.15152223 0.63665009 0.43826035 3.1349989e-39
0.15091507 0.63661611 0.43844497 3.2271946e-39
0.15030791 0.63658214 0.43862957 3.1349989e-39
0.14970075 0.63654816 0.43881419 3.1349989e-39
0.14909357 0.63651419 0.43899879 3.2271946e-39
0.14848641 0.63648021 0.43918341 3.4115858e-39
0.14784236 0.6373356 0.43985888 3.4115858e-39
0.14723366 0.63730156 0.44004396 3.4115858e-39
0.14662495 0.63726753 0.44022903 3.4115858e-39
0.14601626 0.63723344 0.4404141 3.2271946e-39
0.14540754 0.6371994 0.4405992 3.4115858e-39
0.14479885 0.63716531 0.44078428 3.4115858e-39
0.14419013 0.63713127 0.44096935 3.2271946e-39
0.14358144 0.63709724 0.44115442 3.5959771e-39
0.14297272 0.63706315 0.44133952 3.5034255e-39
0.14236403 0.63702911 0.4415246 3.4112299e-39
0.14175531 0.63699502 0.44170967 3.41159e-39
0.1411466 0.63696098 0.44189474 3.41159e-39
0.1405379 0.63692695 0.44207981 3.5037857e-39
0.13992919 0.63689286 0.44226491 3.5959813e-39
0.13932049 0.63685882 0.44244999 3.6881769e-39
0.13871178 0.63682473 0.44263506 3.6881769e-39
0.13810308 0.63679069 0.44282013 3.7803726e-39
0.13749437 0.63675666 0.44300523 3.7803726e-39
0.13688567 0.63672256 0.44319031 4.1491509e-39
0.13627696 0.63668853 0.44337538 4.4257378e-39
0.13566825 0.63665444 0.44356045 4.7945203e-39
0.13505955 0.6366204 0.44374555 4.5179334e-39
0.13445085 0.63658637 0.44393063 4.5179306e-39
0.13384214 0.63655227 0.4441157 4.425735e-39
0.13323344 0.63651824 0.44430077 4.0569524e-39
0.13262473 0.63648415 0.44448587 4.1491481e-39
0.13201602 0.63645011 0.44467095 3.8725612e-39
0.13140732 0.63641608 0.44485602 4.0569524e-39
0.13079862 0.63638198 0.44504109 4.425735e-39
0.13018991 0.63634795 0.44522616 4.5179306e-39
0.12949809 0.63720065 0.44591615 4.2413437e-39
0.12888785 0.6371665 0.4461017 4.2413437e-39
0.1282776 0.63713235 0.44628724 4.3335393e-39
0.12766735 0.63709819 0.44647279 4.3335393e-39
0.12705712 0.63706404 0.44665834 4.5179306e-39
0.12644687 0.63702995 0.44684389 4.7945175e-39
0.12574425 0.63788205 0.44753715 5.0711044e-39
0.12513247 0.63784784 0.44772318 5.0711044e-39
0.12452069 0.63781357 0.44790921 5.3476913e-39
0.1239089 0.63777936 0.4480952 5.5320825e-39
0.12329711 0.63774514 0.44828123 5.0711044e-39
0.12258527 0.63859671 0.44897729 5.4398869e-39
0.12197194 0.63856238 0.44916379 5.3476884e-39
0.12135861 0.63852805 0.44935027 5.5320797e-39
0.12074528 0.63849378 0.44953674 5.4398841e-39
0.12002573 0.63934493 0.45023516 5.5320797e-39
0.11941086 0.63931048 0.45042211 5.716471e-39
0.11879599 0.63927609 0.45060906 5.8086666e-39
0.11818112 0.6392417 0.45079601 5.716471e-39
0.11756625 0.6392073 0.45098296 5.9930579e-39
0.11695138 0.63917291 0.45116994 5.716471e-39
0.11622104 0.64002347 0.45187163 6.0852535e-39
0.11560463 0.63998896 0.45205906 6.0852535e-39
0.11498822 0.63995451 0.45224646 6.3618404e-39
0.11437181 0.63992 0.45243388 5.9930579e-39
0.1137554 0.63988549 0.45262131 5.8086666e-39
0.11313899 0.63985103 0.45280874 5.9930607e-39
0.11239786 0.64070094 0.45351371 6.1774519e-39
0.11177991 0.64066637 0.45370159 6.6384301e-39
0.11116195 0.64063179 0.45388949 6.7306257e-39
0.11054401 0.64059722 0.45407739 6.8228185e-39
0.10992605 0.64056265 0.45426527 7.4681879e-39
0.1093081 0.64052808 0.45445317 7.191601e-39
0.10869016 0.64049351 0.45464104 7.0072098e-39
0.1079367 0.64134282 0.45534977 7.3759923e-39
0.1073172 0.64130813 0.45553815 7.191601e-39
0.10669771 0.6412735 0.4557265 7.4681879e-39
0.10607821 0.64123881 0.45591486 8.0213617e-39
0.10545873 0.64120412 0.45610321 7.6529393e-39
0.10483923 0.64116949 0.45629159 7.745135e-39
0.10407499 0.64201814 0.45700356 7.9295262e-39
0.10345396 0.64198339 0.45719239 8.2061131e-39
0.10283292 0.64194864 0.45738122 8.5748956e-39
0.10221189 0.64191389 0.45757005 9.0358738e-39
0.10143994 0.64276212 0.45828441 9.4042962e-39
0.10081736 0.64272732 0.45847371 1.0141861e-38
0.10019479 0.64269245 0.45866302 1.0418448e-38
0.099416681 0.64354032 0.45937923 1.0141861e-38
0.098478407 0.64527071 0.46062377 9.7730787e-39
0.097533964 0.64700067 0.46187019 9.4964918e-39
0.096423209 0.64961278 0.46364683 9.3121005e-39
0.094500437 0.65307093 0.46614999 9.3128166e-39
0.093200229 0.65656382 0.46846381 8.9440341e-39
0.09238667 0.65740973 0.46919084 8.7592827e-39
0.091570035 0.65825546 0.46991876 8.9436739e-39
0.090750314 0.65910101 0.47064763 8.6660081e-39
0.090098463 0.65906459 0.47084582 8.6660081e-39
0.0896191 0.65814632 0.47051194 8.7574848e-39
0.088968791 0.6581099 0.47070968 8.7574848e-39
0.088142902 0.65895516 0.47144043 9.0340717e-39
0.087491043 0.65891868 0.47163862 9.4028542e-39
0.086839192 0.6588822 0.47183684 9.6794411e-39
0.086187333 0.65884572 0.47203502 9.7716367e-39
0.085535482 0.65880924 0.47223324 9.7723556e-39
0.08488363 0.65877277 0.47243142 9.4957687e-39
0.084046967 0.65961736 0.47316545 9.5879644e-39
0.083393566 0.65958083 0.47336411 9.5879644e-39
0.082740165 0.65954429 0.47356278 9.4957687e-39
0.081897333 0.66038853 0.47429869 9.9567469e-39
0.081242397 0.66035187 0.47449782 1.0417369e-38
0.080394939 0.66119587 0.47523513 1.0786152e-38
0.079738468 0.66115916 0.47543472 1.0787233e-38
0.07908199 0.66112244 0.47563434 1.0971625e-38
0.078228369 0.66196609 0.47637349 1.106382e-38
0.17242651 0.64026684 0.43397304 9.6805327e-39
0.17179102 0.6393404 0.43368503 9.7727284e-39
0.17118077 0.63930625 0.43387058 9.588693e-39
0.17057052 0.63927209 0.43405613 9.6808887e-39
0.16996028 0.639238 0.43424168 9.6808887e-39
0.16935004 0.63920385 0.43442723 1.0141867e-38
0.1687398 0.63916969 0.43461278 4.2413507e-39
0.16812955 0.63913554 0.43479833 3.6881769e-39
0.1675193 0.63910139 0.43498388 3.6878168e-39
0.16690905 0.63906723 0.43516943 3.872208e-39
0.16628899 0.63814175 0.43487674 3.7800124e-39
0.16568027 0.63810766 0.43506184 3.5956212e-39
0.16507158 0.63807362 0.43524691 3.4112299e-39
0.16446286 0.63803953 0.43543199 3.2268386e-39
0.16385417 0.6380055 0.43561706 3.2271946e-39
0.16324545 0.63797146 0.43580216 3.4115858e-39
0.16263618 0.63704646 0.43550617 3.5959771e-39
0.16202901 0.63701248 0.43569079 3.1349989e-39
0.16142185 0.63697857 0.43587539 3.1349989e-39
0.16081469 0.63694459 0.43606001 3.0428033e-39
0.16020751 0.63691062 0.43624461 3.2271946e-39
0.15960035 0.63687664 0.43642923 3.2271946e-39
0.15899318 0.63684267 0.43661383 3.1349989e-39
0.15838602 0.63680869 0.43679845 3.4115858e-39
0.15777886 0.63677472 0.43698305 3.5037815e-39
0.1571717 0.63674074 0.43716767 3.2271946e-39
0.15656453 0.63670677 0.43735227 3.0428033e-39
0.15595737 0.63667279 0.4375369 2.9506077e-39
0.15535019 0.63663882 0.43772149 3.0428033e-39
0.15474305 0.63660485 0.43790612 3.1349989e-39
0.15413587 0.63657087 0.43809071 3.1349989e-39
0.15352871 0.6365369 0.43827534 3.0428033e-39
0.15292154 0.63650292 0.43845993 3.0428033e-39
0.15231438 0.63646895 0.43864456 3.0428033e-39
0.15170722 0.63643497 0.43882918 3.1349989e-39
0.15110005 0.636401 0.43901378 3.0428033e-39
0.15049289 0.63636702 0.4391984 3.1349989e-39
0.14988573 0.63633305 0.439383 3.0428033e-39
0.14927855 0.63629913 0.43956763 3.2271946e-39
0.14867139 0.63626516 0.43975222 3.4115858e-39
0.14802782 0.63712001 0.44042912 3.5037815e-39
0.14741911 0.63708591 0.44061422 3.4115858e-39
0.14681041 0.63705188 0.4407993 3.5037815e-39
0.1462017 0.63701779 0.44098437 3.4115858e-39
0.145593 0.63698375 0.44116944 3.4112299e-39
0.14498429 0.63694972 0.44135454 3.4112299e-39
0.14437559 0.63691562 0.44153962 3.4112299e-39
0.14376688 0.63688159 0.44172469 3.5034255e-39
0.14315818 0.6368475 0.44190976 3.3193944e-39
0.14254947 0.63681346 0.44209483 3.3193944e-39
0.14194077 0.63677943 0.44227993 3.3193944e-39
0.14133206 0.63674533 0.44246501 3.41159e-39
0.14072336 0.6367113 0.44265008 3.5037857e-39
0.14011465 0.63667721 0.44283515 3.5959813e-39
0.13950594 0.63664317 0.44302025 3.5959813e-39
0.13889724 0.63660914 0.44320533 3.6881769e-39
0.13828853 0.63657504 0.4433904 4.0565993e-39
0.13767983 0.63654101 0.44357547 4.0565993e-39
0.13707112 0.63650697 0.44376057 4.4257378e-39
0.13646242 0.63647288 0.44394565 5.1633028e-39
0.13585371 0.63643885 0.44413072 4.7023218e-39
0.13524501 0.63640475 0.44431579 4.3335393e-39
0.1346363 0.63637072 0.44450086 4.425735e-39
0.1340276 0.63633668 0.44468597 4.425735e-39
0.13341889 0.63630259 0.44487104 4.0569524e-39
0.13281019 0.63626856 0.44505611 4.1491481e-39
0.13220148 0.63623446 0.44524118 4.1491481e-39
0.13159278 0.63620043 0.44542629 4.0569524e-39
0.13098407 0.63616639 0.44561136 4.2413437e-39
0.13029426 0.63701862 0.44630229 4.5179306e-39
0.12968402 0.63698447 0.44648784 4.4257378e-39
0.12907377 0.63695031 0.44667339 4.2413465e-39
0.12846352 0.63691616 0.44685894 4.3335421e-39
0.12785327 0.63688201 0.44704449 4.7945203e-39
0.12724304 0.63684791 0.44723004 5.0711044e-39
0.12654245 0.63769954 0.44792429 4.9789087e-39
0.12593065 0.63766533 0.44811031 5.3476913e-39
0.12531887 0.63763112 0.44829631 5.4398869e-39
0.12470708 0.63759685 0.44848233 5.1633e-39
0.12409529 0.63756263 0.44866836 5.3476913e-39
0.12338546 0.63841373 0.44936541 5.4398869e-39
0.12277213 0.63837945 0.44955188 5.5320825e-39
0.1221588 0.63834512 0.44973835 5.3476913e-39
0.12154547 0.63831079 0.44992486 5.5320825e-39
0.12082793 0.63916147 0.45062423 5.6242753e-39
0.12021306 0.63912708 0.45081118 5.716471e-39
0.11959819 0.63909268 0.45099813 5.8086666e-39
0.11898332 0.63905829 0.45118508 6.0852535e-39
0.11836845 0.6390239 0.45137206 6.1774491e-39
0.11764166 0.6398741 0.45207426 6.1774491e-39
0.11702525 0.63983959 0.45226169 6.1774491e-39
0.11640884 0.63980508 0.45244911 6.2696447e-39
0.11579243 0.63977063 0.45263651 6.0852535e-39
0.11517602 0.63973612 0.45282394 6.3618404e-39
0.11455961 0.63970166 0.45301136 6.1774519e-39
0.11382204 0.64055121 0.45371684 6.0852563e-39
0.11320408 0.64051664 0.45390472 6.1774519e-39
0.11258613 0.64048207 0.45409262 6.3618432e-39
0.11196817 0.6404475 0.45428053 6.915017e-39
0.11135023 0.64041293 0.4544684 6.8228213e-39
0.11073228 0.64037836 0.4546563 6.9150142e-39
0.11011432 0.64034373 0.45484418 7.0994054e-39
0.10949637 0.64030915 0.45503208 7.4681879e-39
0.10874493 0.64115798 0.45574179 7.3759923e-39
0.10812543 0.64112335 0.45593014 7.7447748e-39
0.10750594 0.64108866 0.45611849 7.8369705e-39
0.10688645 0.64105403 0.45630687 7.8369705e-39
0.10626695 0.64101934 0.45649523 8.205753e-39
0.10564747 0.64098471 0.45668358 8.205753e-39
0.10488524 0.64183289 0.45739654 8.4823399e-39
0.1042642 0.64179814 0.45758536 8.8511224e-39
0.10364316 0.64176339 0.45777422 9.0355136e-39
0.10302213 0.64172864 0.45796305 9.4964918e-39
0.1024011 0.64169389 0.45815185 9.5886874e-39
0.10162961 0.64254159 0.45886767 9.9574699e-39
0.10100704 0.64250678 0.45905694 1.0141861e-38
0.10023095 0.64335418 0.45977414 1.0326252e-38
0.099451765 0.6442014 0.46049228 1.0234057e-38
0.098356277 0.64681268 0.46226901 1.0049666e-38
0.097409688 0.64854145 0.46351928 9.7730787e-39
0.096297264 0.65115172 0.46530116 9.3121005e-39
0.095175579 0.65376151 0.46708587 9.3121005e-39
0.093881883 0.65725249 0.4694041 9.3128166e-39
0.093068793 0.65809786 0.47013253 8.7596428e-39
0.09225262 0.65894306 0.47086191 8.6670871e-39
0.091600768 0.65890658 0.47106013 8.7592827e-39
0.090779983 0.65975147 0.47179088 8.6660081e-39
0.090126581 0.65971494 0.47198957 8.5738124e-39
0.089473195 0.6596784 0.47218823 8.4816168e-39
0.088819794 0.6596418 0.4723869 8.4816168e-39
0.088166401 0.65960526 0.47258556 9.0340717e-39
0.087513007 0.65956873 0.47278422 9.6794411e-39
0.086859614 0.65953213 0.47298288 9.7716367e-39
0.086206213 0.65949559 0.47318158 9.956028e-39
0.085552819 0.65945905 0.47338024 9.7723556e-39
0.084716611 0.66030312 0.4741157 9.5879644e-39
0.084246032 0.65938592 0.47377756 9.68016e-39
0.083406739 0.6602298 0.47451398 9.7723556e-39
0.082751811 0.6601932 0.47471312 9.7719997e-39
0.082096875 0.66015655 0.47491226 1.1154934e-38
0.081441939 0.66011989 0.4751114 1.1248212e-38
0.080594949 0.66096336 0.47585014 1.1340407e-38
0.079938479 0.66092658 0.47604972 1.106382e-38
0.079281993 0.66088986 0.47624934 1.0879429e-38
0.078625515 0.66085315 0.47644895 1.0879432e-38
0.17197694 0.63912421 0.43425673 9.9571196e-39
0.17136669 0.63909006 0.43444228 9.9571196e-39
0.17075644 0.63905597 0.43462783 9.7727284e-39
0.1701462 0.63902181 0.43481338 9.7730843e-39
0.16953596 0.63898766 0.43499893 9.6808887e-39
0.16892572 0.63895351 0.43518448 1.0326618e-38
0.16831547 0.63891935 0.43537003 4.3339023e-39
0.16770522 0.6388852 0.43555558 3.3193944e-39
0.16709498 0.63885111 0.43574113 3.7803726e-39
0.16648473 0.63881695 0.43592668 3.6878168e-39
0.16586573 0.63789201 0.43563208 3.6878168e-39
0.16525702 0.63785797 0.43581715 3.7800124e-39
0.16464832 0.63782394 0.43600225 3.5034255e-39
0.16403961 0.63778985 0.43618733 3.2268386e-39
0.16343091 0.63775581 0.4363724 3.4112299e-39
0.1628222 0.63772172 0.43655747 3.5037815e-39
0.162214 0.63679743 0.4362596 3.1349989e-39
0.16160683 0.63676345 0.43644419 3.2271946e-39
0.16099967 0.63672948 0.43662882 3.1349989e-39
0.16039249 0.6366955 0.43681341 3.0428033e-39
0.15978533 0.63666153 0.43699804 3.1349989e-39
0.15917817 0.63662755 0.43718264 3.1349989e-39
0.158571 0.63659358 0.43736726 3.4115858e-39
0.15796384 0.63655961 0.43755189 3.4115858e-39
0.15735668 0.63652563 0.43773648 3.2271946e-39
0.15674952 0.63649166 0.43792111 3.0428033e-39
0.15614235 0.63645768 0.4381057 3.0428033e-39
0.15553518 0.63642371 0.43829033 3.2271946e-39
0.15492803 0.63638973 0.43847492 3.2271946e-39
0.15432085 0.63635582 0.43865955 3.1349989e-39
0.15371369 0.63632184 0.43884414 3.1349989e-39
0.15310653 0.63628787 0.43902877 3.1349989e-39
0.15249936 0.63625389 0.43921337 3.1349989e-39
0.1518922 0.63621992 0.43939799 3.1349989e-39
0.15128504 0.63618594 0.43958259 3.1349989e-39
0.15067787 0.63615197 0.43976721 3.2271946e-39
0.15007071 0.63611799 0.43995181 2.9506077e-39
0.14946353 0.63608402 0.44013643 3.2271946e-39
0.14882198 0.63693839 0.44081432 3.4115858e-39
0.14821327 0.63690436 0.44099939 3.5037815e-39
0.14760457 0.63687032 0.44118446 3.5037815e-39
0.14699586 0.63683623 0.44136953 3.5037815e-39
0.14638716 0.6368022 0.44155464 3.4115858e-39
0.14577845 0.6367681 0.44173971 3.4112299e-39
0.14516975 0.63673407 0.44192478 3.4112299e-39
0.14456104 0.63670003 0.44210985 3.5034255e-39
0.14395234 0.63666594 0.44229496 3.5034255e-39
0.14334363 0.63663191 0.44248003 3.5037857e-39
0.14273493 0.63659781 0.4426651 3.5959813e-39
0.14212622 0.63656378 0.44285017 3.5037857e-39
0.14151752 0.63652974 0.44303527 3.5037857e-39
0.14090881 0.63649565 0.44322035 3.5959813e-39
0.14030011 0.63646162 0.44340542 3.6881769e-39
0.1396914 0.63642752 0.44359049 3.6881769e-39
0.1390827 0.63639349 0.44377556 3.9647638e-39
0.13847399 0.63635945 0.44396067 3.872564e-39
0.13786528 0.63632536 0.44414574 4.5179334e-39
0.13725658 0.63629133 0.44433081 5.3476941e-39
0.13664787 0.63625723 0.44451588 4.7023246e-39
0.13603917 0.6362232 0.44470099 4.3335421e-39
0.13543046 0.63618916 0.44488606 4.2413465e-39
0.13482176 0.63615507 0.44507113 4.0569524e-39
0.13421305 0.63612103 0.4452562 4.0569524e-39
0.13360435 0.63608694 0.44544131 4.0569524e-39
0.13299564 0.63605291 0.44562638 4.2413437e-39
0.13238694 0.63601887 0.44581145 4.3335393e-39
0.13177823 0.63598478 0.44599652 4.2413437e-39
0.13109043 0.63683659 0.44668844 4.1491509e-39
0.13048019 0.63680243 0.44687399 4.3335421e-39
0.12986994 0.63676828 0.44705954 4.4257378e-39
0.12925969 0.63673413 0.44724509 4.5179334e-39
0.12864944 0.63669997 0.44743064 4.4257378e-39
0.1280392 0.63666588 0.44761619 4.8867159e-39
0.12734061 0.63751704 0.44831142 5.1633028e-39
0.12672883 0.63748282 0.44849741 5.4398897e-39
0.12611705 0.63744861 0.44868344 5.3476913e-39
0.12550525 0.6374144 0.44886947 5.4398869e-39
0.12479898 0.63826513 0.44956702 5.1633e-39
0.12418564 0.6382308 0.44975349 5.0711044e-39
0.12357232 0.63819647 0.44993997 5.0711044e-39
0.12295899 0.63816214 0.45012647 5.4398869e-39
0.122245 0.63901246 0.45082635 5.6242781e-39
0.12163012 0.63897806 0.4510133 5.8086694e-39
0.12101526 0.63894367 0.45120025 5.6242781e-39
0.12040039 0.63890928 0.45138723 5.6242781e-39
0.1196787 0.63975918 0.45208946 5.9930607e-39
0.11906228 0.63972467 0.45227689 6.0852563e-39
0.11844587 0.63969022 0.45246431 5.9930607e-39
0.11782946 0.63965571 0.45265174 6.0852563e-39
0.11721305 0.63962126 0.45283917 6.1774519e-39
0.11659665 0.63958675 0.45302656 6.2696476e-39
0.11598023 0.63955224 0.45321399 6.1774519e-39
0.11524621 0.64040142 0.45391998 6.3618432e-39
0.11462826 0.64036685 0.45410788 6.2696476e-39
0.1140103 0.64033228 0.45429575 6.2696476e-39
0.11339235 0.64029771 0.45448366 6.7306257e-39
0.1127744 0.64026314 0.45467153 7.3759951e-39
0.11215645 0.64022857 0.45485944 7.4681907e-39
0.1115385 0.640194 0.45504731 7.1916038e-39
0.11092055 0.64015943 0.45523521 7.3759951e-39
0.11030259 0.64012486 0.45542309 7.5603864e-39
0.10955316 0.64097321 0.45613378 7.6525792e-39
0.10893366 0.64093852 0.45632213 7.6525792e-39
0.10831417 0.64090389 0.45651051 8.0213617e-39
0.10769468 0.6408692 0.45669886 8.1135573e-39
0.10707518 0.64083457 0.45688722 8.1135573e-39
0.10645569 0.64079988 0.4570756 8.4823399e-39
0.10569547 0.64164764 0.45778954 8.7589268e-39
0.10507444 0.64161289 0.45797837 8.7589268e-39
0.10445341 0.64157814 0.45816717 9.1277093e-39
0.10383237 0.64154339 0.45835602 9.4964918e-39
0.10321134 0.64150864 0.45854485 9.9574699e-39
0.10244187 0.64235586 0.45926163 9.9574699e-39
0.1018193 0.64232105 0.4594509 1.0234057e-38
0.10119672 0.64228618 0.4596402 1.0049666e-38
0.10026804 0.64401478 0.46088818 1.0234057e-38
0.099178582 0.64662468 0.46266785 1.0234057e-38
0.095695533 0.65533257 0.46855491 9.3121005e-39
0.094728313 0.65705901 0.46981463 8.943318e-39
0.093917236 0.65790385 0.47054404 9.0358738e-39
0.093103081 0.65874863 0.47127441 8.5748956e-39
0.092285842 0.65959316 0.47200567 8.4826958e-39
0.091632441 0.65955657 0.47220436 8.4826958e-39
0.090979047 0.65952003 0.47240302 8.4816168e-39
0.090325654 0.65948349 0.47260168 8.4816168e-39
0.08967226 0.6594469 0.47280034 8.8503993e-39
0.089018866 0.65941036 0.47299901 9.1269862e-39
0.088365465 0.65937382 0.47319767 9.5879644e-39
0.087535903 0.6602177 0.47393271 9.5879644e-39
0.086880967 0.66018105 0.47413185 9.8645512e-39
0.086226031 0.66014439 0.47433099 9.7723556e-39
0.085571088 0.66010773 0.47453013 9.9567469e-39
0.084916152 0.66007107 0.47472927 9.7723556e-39
0.084261216 0.66003448 0.47492841 1.0232978e-38
0.083420865 0.6608777 0.47566673 1.0232978e-38
0.082764387 0.66084099 0.47586632 1.0787231e-38
0.082107909 0.66080421 0.47606593 1.1063818e-38
0.081451438 0.6607675 0.47626552 1.0879429e-38
0.080794953 0.66073078 0.47646514 1.0879429e-38
0.17218749 0.63979912 0.43530536 1.0233707e-38
0.17157571 0.6397649 0.43549135 1.0141511e-38
0.17094237 0.63883978 0.43519953 9.7727284e-39
0.17033213 0.63880563 0.43538508 9.9574755e-39
0.16972189 0.63877147 0.43557063 9.7730843e-39
0.16911164 0.63873732 0.43575618 9.5890532e-39
0.16850139 0.63870317 0.43594173 1.0142227e-38
0.16789114 0.63866901 0.43612728 5.5320895e-39
0.1672809 0.63863492 0.43631282 3.5037857e-39
0.16667065 0.63860077 0.43649837 3.7800124e-39
0.16605118 0.63767642 0.43620235 3.7800124e-39
0.16544248 0.63764232 0.43638742 3.871129e-39
0.16483377 0.63760829 0.43657249 3.6867378e-39
0.16422507 0.63757426 0.43675756 3.2268386e-39
0.16361636 0.63754016 0.43694267 3.4112299e-39
0.16300766 0.63750613 0.43712774 3.2271946e-39
0.16239895 0.63747203 0.43731281 3.1349989e-39
0.16179182 0.63654834 0.43701303 3.2271946e-39
0.16118465 0.63651437 0.43719763 3.4115858e-39
0.16057748 0.63648039 0.43738225 3.2271946e-39
0.15997033 0.63644648 0.43756685 3.2271946e-39
0.15936315 0.6364125 0.43775147 3.1349989e-39
0.15875599 0.63637853 0.43793607 3.2271946e-39
0.15814883 0.63634455 0.43812069 3.4115858e-39
0.15754166 0.63631058 0.43830529 3.4115858e-39
0.1569345 0.6362766 0.43848991 3.2271946e-39
0.15632734 0.63624263 0.43867451 3.2271946e-39
0.15572017 0.63620865 0.43885913 3.4115858e-39
0.15511301 0.63617468 0.43904373 3.2271946e-39
0.15450583 0.6361407 0.43922836 3.2271946e-39
0.15389867 0.63610673 0.43941295 3.1349989e-39
0.15329151 0.63607275 0.43959758 3.1349989e-39
0.15268435 0.63603878 0.43978217 3.1349989e-39
0.15207718 0.63600481 0.4399668 3.1349989e-39
0.15147002 0.63597083 0.44015139 3.1349989e-39
0.15086286 0.63593686 0.44033602 3.1349989e-39
0.15025569 0.63590288 0.44052061 3.1349989e-39
0.14961614 0.63675684 0.44119948 3.1349989e-39
0.14900744 0.6367228 0.44138455 3.2271946e-39
0.14839873 0.63668871 0.44156963 3.2271946e-39
0.14779003 0.63665468 0.44175473 3.5037815e-39
0.14718132 0.63662058 0.4419398 3.5037815e-39
0.1465726 0.63658655 0.44212487 3.5959771e-39
0.14596391 0.63655251 0.44230995 3.4112299e-39
0.14535519 0.63651842 0.44249505 3.5034255e-39
0.1447465 0.63648438 0.44268012 3.4112299e-39
0.14413778 0.63645029 0.44286519 3.4112299e-39
0.14352909 0.63641626 0.44305027 3.3193944e-39
0.14292037 0.63638222 0.44323537 3.5959813e-39
0.14231168 0.63634813 0.44342044 3.5959813e-39
0.14170296 0.63631409 0.44360551 3.5959813e-39
0.14109427 0.63628 0.44379058 3.6881769e-39
0.14048555 0.63624597 0.44397569 3.6881769e-39
0.13987686 0.63621193 0.44416076 3.6881769e-39
0.13926814 0.63617784 0.44434583 4.0569594e-39
0.13865945 0.6361438 0.4445309 4.7023218e-39
0.13805073 0.63610971 0.44471598 5.4398869e-39
0.13744202 0.63607568 0.44490108 4.7023218e-39
0.13683333 0.63604164 0.44508615 4.2413437e-39
0.13622461 0.63600755 0.44527122 4.3335421e-39
0.13561592 0.63597351 0.4454563 4.2413465e-39
0.1350072 0.63593942 0.4456414 4.2413465e-39
0.13439851 0.63590539 0.44582647 4.1491509e-39
0.13378979 0.63587135 0.44601154 4.1491509e-39
0.1331811 0.63583726 0.44619662 4.1491509e-39
0.13249685 0.63668871 0.44688904 4.3335421e-39
0.1318866 0.63665456 0.44707459 4.4257378e-39
0.13127635 0.6366204 0.44726014 4.5179334e-39
0.13066611 0.63658625 0.44744569 4.5179334e-39
0.13005586 0.6365521 0.44763124 4.4257378e-39
0.12944561 0.63651794 0.44781679 4.4257378e-39
0.12875059 0.6373688 0.44851252 4.5179334e-39
0.1281388 0.63733459 0.44869855 4.8867159e-39
0.12752701 0.63730031 0.44888455 4.9789115e-39
0.12691523 0.6372661 0.44907057 5.4398897e-39
0.12630343 0.63723189 0.4492566 5.4398869e-39
0.12559916 0.63808215 0.44995511 5.3476913e-39
0.12498584 0.63804787 0.45014158 5.4398869e-39
0.1243725 0.63801354 0.45032808 5.4398869e-39
0.12375918 0.63797921 0.45051455 5.5320825e-39
0.1230472 0.63882905 0.45121542 5.4398869e-39
0.12243234 0.63879466 0.4514024 5.5320825e-39
0.12181746 0.63876027 0.45158935 5.7164738e-39
0.1212026 0.63872588 0.4517763 5.7164738e-39
0.1204829 0.6395753 0.45247951 5.7164738e-39
0.1198665 0.63954085 0.45266694 5.9930607e-39
0.11925008 0.63950634 0.45285437 6.0852563e-39
0.11863367 0.63947183 0.45304179 6.0852563e-39
0.11801726 0.63943738 0.45322919 6.0852563e-39
0.11740085 0.63940287 0.45341662 6.1774519e-39
0.11667038 0.6402517 0.45412311 6.1774519e-39
0.11605243 0.64021713 0.45431101 6.2696476e-39
0.11543448 0.64018255 0.45449889 6.4540388e-39
0.11481652 0.64014798 0.45468679 6.3618432e-39
0.11419857 0.64011341 0.45487466 6.4540388e-39
0.11358062 0.64007884 0.45506257 6.8228213e-39
0.11296268 0.64004421 0.45525044 7.4681907e-39
0.11234472 0.64000964 0.45543835 7.6525792e-39
0.11172677 0.63997507 0.45562625 7.3759923e-39
0.11110882 0.6399405 0.45581412 7.3759923e-39
0.11036139 0.64078844 0.45652577 7.6525792e-39
0.1097419 0.64075375 0.45671415 7.8369705e-39
0.10912241 0.64071912 0.4569025 8.0213617e-39
0.10850291 0.64068443 0.45709085 8.1135573e-39
0.10788342 0.6406498 0.45727924 8.1135573e-39
0.10726392 0.64061511 0.45746759 8.2979486e-39
0.10664443 0.64058042 0.45765594 8.6667311e-39
0.10588469 0.64142764 0.45837134 8.7589268e-39
0.10526365 0.64139289 0.45856017 8.8511224e-39
0.10464262 0.64135814 0.458749 9.1277093e-39
0.10402158 0.64132339 0.45893782 9.5886874e-39
0.10325412 0.64217019 0.45965555 1.0326608e-38
