# .PCD v0.7 - Point Cloud Data file format
VERSION 0.7
FIELDS x y z
SIZE 4 4 4
TYPE F F F
COUNT 1 1 1
WIDTH 1340
HEIGHT 1
VIEWPOINT 0 0 0 1 0 0 0
POINTS 1340
DATA ascii
0.03044058 -0.098157421 0.35619712
0.030781602 -0.098173887 0.35587037
0.03150744 -0.097882569 0.35520285
0.031856574 -0.097896136 0.35489398
0.032615859 -0.097606204 0.3542839
0.032986932 -0.097615868 0.35400254
0.033364356 -0.097625628 0.35372439
0.0095762629 -0.097315341 0.35504553
0.010451853 -0.097631305 0.35556144
0.01088011 -0.09760917 0.35581946
0.011298469 -0.097584903 0.3560909
0.011711235 -0.097558916 0.35636979
0.012547325 -0.097869448 0.35697764
0.012958755 -0.097840659 0.35726815
0.013770764 -0.098150112 0.35791516
0.014183391 -0.098118 0.35822606
0.01499262 -0.098430894 0.35885346
0.015426031 -0.098398633 0.35916001
0.016239971 -0.098719425 0.35972077
0.01671274 -0.09869194 0.35997844
0.017205259 -0.098665327 0.36023456
0.018017475 -0.0990014 0.36063626
0.018539788 -0.098981693 0.36082101
0.019083422 -0.098965473 0.36098281
0.019645695 -0.098952293 0.36112502
0.020226983 -0.098944865 0.36121911
0.020819806 -0.098939463 0.36128208
0.021414101 -0.098938629 0.36130539
0.022014286 -0.098941162 0.36128891
0.02260517 -0.098946393 0.36122608
0.023179939 -0.098953359 0.36113709
0.023740493 -0.098963208 0.36100861
0.024277795 -0.098974496 0.36084914
0.02479247 -0.098986655 0.36066741
0.02528148 -0.099000156 0.36046302
0.0260114 -0.098687135 0.36003631
0.026468014 -0.098705396 0.35977244
0.02689172 -0.098723941 0.35948819
0.027601175 -0.098422132 0.35889611
0.02798152 -0.098441824 0.35857075
0.028679181 -0.098146729 0.35790777
0.029023444 -0.098166108 0.35756078
0.029720208 -0.097873718 0.35687035
0.030425349 -0.09758579 0.35617617
0.030767348 -0.097599149 0.35584995
0.031497382 -0.097312592 0.35518944
0.031849932 -0.097322635 0.35488436
0.032612715 -0.097038902 0.35428023
0.032984618 -0.09704487 0.35399926
0.033359304 -0.09705054 0.35371727
0.0095882546 -0.096744537 0.35502371
0.010465541 -0.097056679 0.35553533
0.010896275 -0.097036242 0.35579032
0.011318229 -0.097013943 0.35605699
0.011735713 -0.096989773 0.35632879
0.012575195 -0.097298041 0.35692874
0.012988781 -0.097270444 0.35721642
0.013805767 -0.097579248 0.35785064
0.014219166 -0.097547211 0.35815844
0.015029877 -0.097860232 0.35877687
0.01546266 -0.097827591 0.3590813
0.016272657 -0.098148406 0.35964063
0.01674391 -0.098120227 0.3598966
0.017232873 -0.09809199 0.36015415
0.018036548 -0.098428369 0.36056697
0.018558608 -0.09840817 0.36074528
0.019097028 -0.098390281 0.36091334
0.019654846 -0.098376058 0.36105475
0.020231839 -0.098367058 0.36115426
0.020821253 -0.098361328 0.3612169
0.021411767 -0.098359942 0.36124089
0.022008654 -0.098361604 0.36123136
0.022597356 -0.098367609 0.36116654
0.023169471 -0.098374836 0.36107913
0.023727896 -0.098384976 0.36095464
0.024261877 -0.098397292 0.36079338
0.024777295 -0.098410353 0.36061797
0.02550967 -0.098090865 0.36024207
0.025986591 -0.098110363 0.35998002
0.026444612 -0.098128654 0.3597227
0.026868984 -0.098147035 0.35944244
0.027573982 -0.09784583 0.35884759
0.027957859 -0.097864389 0.35852852
0.028652927 -0.097571187 0.35786644
0.028999427 -0.097588524 0.3575224
0.029697079 -0.097298197 0.35683662
0.030410159 -0.097013623 0.3561556
0.030754246 -0.097024053 0.35583097
0.031490676 -0.096742451 0.3551811
0.031846981 -0.096748598 0.35487977
0.03261226 -0.096471556 0.35428017
0.032985941 -0.096473746 0.35400113
0.033362594 -0.096475556 0.35372141
0.0095975706 -0.096173115 0.35500669
0.010036834 -0.096156508 0.35524762
0.010911487 -0.096462891 0.35576233
0.011336965 -0.096442521 0.35602453
0.01175835 -0.096420266 0.35629094
0.012602431 -0.096726216 0.35688019
0.013019446 -0.096700191 0.35716322
0.013839484 -0.097008131 0.35778734
0.014255769 -0.096976914 0.35808894
0.015067705 -0.097289957 0.35869783
0.015501707 -0.097257607 0.35899639
0.01630662 -0.097577751 0.35955673
0.01677713 -0.0975499 0.35980889
0.01726404 -0.097521074 0.36006242
0.018060962 -0.09785793 0.36048293
0.018580582 -0.097837098 0.36065826
0.019114561 -0.097817883 0.36082634
0.01966708 -0.09780246 0.36096764
0.020238314 -0.097791493 0.36107403
0.020823335 -0.097785816 0.36113217
0.021410566 -0.097783573 0.36115873
0.022002196 -0.097784646 0.36115339
0.022586267 -0.097790726 0.36109257
0.023156952 -0.097798631 0.36100465
0.023712078 -0.097808897 0.36088398
0.024240568 -0.097821727 0.3607209
0.024756636 -0.097835593 0.36054894
0.025482738 -0.097514503 0.36017475
0.025957488 -0.097534604 0.35991359
0.026414413 -0.097553261 0.3596569
0.027139017 -0.097250268 0.35910994
0.027540378 -0.097270101 0.35878715
0.028256373 -0.096977651 0.35815904
0.028623672 -0.096995592 0.3578192
0.029326383 -0.096709862 0.35713974
0.029678337 -0.096721828 0.3568081
0.030394584 -0.09644109 0.3561345
0.03074443 -0.096448481 0.35581645
0.031483371 -0.096171916 0.3551721
0.031845409 -0.096174367 0.35487688
0.032618072 -0.095904119 0.3542898
0.032990869 -0.095902711 0.35400817
0.033369765 -0.095900498 0.35373113
0.010047448 -0.095586605 0.35522968
0.010926913 -0.095889181 0.35573313
0.011356885 -0.095870927 0.35598952
0.011782036 -0.095850617 0.35625121
0.012629392 -0.096154012 0.35683134
0.013050814 -0.096129902 0.35710782
0.013473163 -0.09610296 0.35739356
0.014295721 -0.09640751 0.35801208
0.015106966 -0.096719839 0.35861441
0.01554303 -0.096688367 0.35890609
0.015995217 -0.096656263 0.35919675
0.016812263 -0.096980311 0.35971543
0.017297108 -0.096951395 0.35996535
0.017806178 -0.096924409 0.36020041
0.01860575 -0.097267561 0.36056095
0.01913419 -0.097247414 0.36072966
0.019681353 -0.097230949 0.3608706
0.020246893 -0.097219236 0.3609758
0.020826047 -0.097213365 0.3610318
0.021409633 -0.097210675 0.36105895
0.021995125 -0.0972111 0.3610563
0.022574207 -0.097216405 0.36100256
0.023142107 -0.097224228 0.36091679
0.023693459 -0.097234793 0.36079988
0.024217321 -0.097247504 0.36063814
0.024940249 -0.096921325 0.36031568
0.0254496 -0.096940033 0.36009082
0.025924807 -0.096959941 0.3598364
0.026376985 -0.09697821 0.35957727
0.027100604 -0.096675724 0.35903701
0.027504098 -0.096694499 0.35872066
0.028221713 -0.096403576 0.35810241
0.028594153 -0.096419379 0.35776964
0.029301671 -0.096136153 0.35710353
0.030026199 -0.095861152 0.3564384
0.030380758 -0.095868327 0.35611567
0.031121433 -0.095599957 0.355472
0.031483278 -0.095601313 0.3551735
0.031848781 -0.095600188 0.35488057
0.032629151 -0.095337152 0.35430667
0.033001918 -0.095332034 0.35402402
0.033381999 -0.095326059 0.35374787
0.010058038 -0.095016457 0.35521123
0.010941705 -0.095314659 0.35570467
0.011374517 -0.09529864 0.35595801
0.011802583 -0.095280424 0.35621694
0.012228354 -0.095259629 0.35648161
0.01308082 -0.095559031 0.35705394
0.01350659 -0.095534243 0.35733593
0.014332944 -0.095837146 0.35793969
0.01476836 -0.095808201 0.35822591
0.015584503 -0.096118808 0.35881498
0.01603416 -0.096087232 0.35910624
0.016846424 -0.096410766 0.35962161
0.017331127 -0.09638229 0.35986531
0.017838202 -0.096355833 0.36009279
0.018369999 -0.096331246 0.36030728
0.019155808 -0.096678115 0.3606244
0.019697735 -0.096661136 0.36076283
0.020257281 -0.096649051 0.36086556
0.020829746 -0.096642278 0.36092407
0.021409087 -0.096639372 0.36094964
0.021988498 -0.096639417 0.36094829
0.022562029 -0.096643887 0.36090043
0.023124034 -0.096651666 0.36081421
0.023672488 -0.096662231 0.36070225
0.024368905 -0.096329883 0.36041942
0.024906762 -0.096348375 0.36021978
0.025412824 -0.096366972 0.35999498
0.025886498 -0.096386328 0.35974398
0.026625961 -0.096081175 0.35926262
0.027059766 -0.096101455 0.35895807
0.027465424 -0.09611854 0.35864693
0.028184842 -0.09582936 0.3580409
0.028565159 -0.095842302 0.35771918
0.029279079 -0.09556175 0.35706988
0.030007919 -0.09529113 0.35641709
0.030367354 -0.095295236 0.35609746
0.031120654 -0.09503255 0.35547602
0.031486545 -0.095030703 0.35517985
0.03185666 -0.095026195 0.35489079
0.032641809 -0.094770066 0.35432646
0.033018909 -0.094762035 0.35404858
0.033402521 -0.094752513 0.35377625
0.010068513 -0.094446413 0.35519314
0.010954516 -0.09473905 0.35567927
0.011391736 -0.094725795 0.35592663
0.01182353 -0.09470997 0.35618171
0.012251516 -0.094691098 0.35644439
0.013108198 -0.094987266 0.35700396
0.013538399 -0.094964817 0.35727921
0.014369643 -0.095266007 0.357867
0.014805935 -0.095239043 0.35815102
0.015624909 -0.09554857 0.35872421
0.01607389 -0.095518388 0.35901245
0.016548354 -0.095488638 0.35928723
0.017366197 -0.095812932 0.35976028
0.017869707 -0.09578722 0.35998738
0.018397473 -0.09576349 0.36019665
0.018950557 -0.095744684 0.36036843
0.019715063 -0.096091568 0.36065197
0.020268044 -0.096079029 0.36075601
0.020834923 -0.096071817 0.36081299
0.02140875 -0.096068121 0.36084068
0.021982258 -0.096068427 0.36083525
0.022550287 -0.096072234 0.36078957
0.023105016 -0.096080281 0.36070037
0.023782346 -0.095743075 0.36047333
0.024336852 -0.095759012 0.36030853
0.024871716 -0.095776424 0.36011502
0.025373934 -0.095794283 0.35989133
0.025845652 -0.095812768 0.35964525
0.026580269 -0.095509082 0.35916784
0.027018335 -0.095526896 0.35887572
0.027744778 -0.095239863 0.35829437
0.028151592 -0.09525428 0.3579841
0.028873893 -0.094978638 0.35734802
0.029254731 -0.094986998 0.35703272
0.029992037 -0.094720773 0.35639909
0.030360509 -0.094721794 0.35608855
0.031122567 -0.094465062 0.35548449
0.031496037 -0.094460532 0.35519564
0.031869777 -0.094452672 0.35490862
0.032659691 -0.094204247 0.3543542
0.033041604 -0.094193071 0.35408193
0.010079067 -0.093876109 0.35517463
0.010965678 -0.094162963 0.3556565
0.011407757 -0.094152294 0.3558968
0.011843417 -0.094139181 0.35614762
0.012275093 -0.094123259 0.35640588
0.013135054 -0.09441483 0.35695398
0.013568996 -0.094395161 0.35722366
0.014003749 -0.094371699 0.35750785
0.014841378 -0.094669007 0.35807911
0.015663762 -0.094976589 0.35863543
0.016113533 -0.094948918 0.35891739
0.016586307 -0.094920896 0.35918936
0.017402805 -0.095242813 0.35965344
0.017900966 -0.095217988 0.35988203
0.018424263 -0.095195107 0.36008906
0.018973118 -0.095176861 0.36025643
0.019539101 -0.095161021 0.36040476
0.020279048 -0.095508426 0.36064136
0.020841857 -0.09550111 0.36070216
0.021408616 -0.09549693 0.36072859
0.021976549 -0.095497124 0.36072177
0.022539107 -0.095501021 0.36067548
0.023087963 -0.095508404 0.36059016
0.023754669 -0.095172554 0.36036187
0.024306854 -0.095187999 0.36020091
0.024836715 -0.095204338 0.36000833
0.025335554 -0.095221154 0.35978669
0.026069991 -0.094916798 0.35935634
0.026537355 -0.094935894 0.35907656
0.026974903 -0.094952166 0.35878739
0.027705962 -0.094666623 0.35822716
0.028118111 -0.09467864 0.35792506
0.028848745 -0.094406255 0.35731259
0.029235221 -0.094411604 0.35700223
0.029981349 -0.094149813 0.35638848
0.030357687 -0.094148308 0.3560856
0.031129755 -0.093898214 0.35550177
0.031508077 -0.093890786 0.3552157
0.031889509 -0.093880072 0.35493639
0.032683406 -0.093639702 0.3543919
0.033068284 -0.093625285 0.35412157
0.033457775 -0.093609482 0.35385501
0.010090491 -0.09330564 0.35515416
0.010977178 -0.09358608 0.35563266
0.011421854 -0.093577921 0.35587004
0.011859873 -0.093567617 0.3561191
0.012295776 -0.093554549 0.35637251
0.013162152 -0.093841538 0.35690242
0.013597103 -0.0938247 0.35717186
0.014033959 -0.093803965 0.35745201
0.014876023 -0.094097964 0.35800716
0.015329184 -0.09407486 0.35828304
0.016150475 -0.094377592 0.35882699
0.016622607 -0.09435232 0.35909456
0.017119989 -0.094327815 0.35934076
0.017930938 -0.094647415 0.35977998
0.018451359 -0.094626218 0.35998115
0.018995121 -0.094608374 0.36015129
0.01955731 -0.094593577 0.36029288
0.020138975 -0.094580047 0.36042306
0.020849848 -0.09492939 0.36058763
0.021408664 -0.094924726 0.36061549
0.021970859 -0.094925113 0.36060819
0.02252846 -0.094928943 0.36056104
0.023156434 -0.09458793 0.36039999
0.023728918 -0.094602026 0.36025572
0.024278205 -0.09461651 0.36009449
0.024803571 -0.094631672 0.3599028
0.025298385 -0.094647162 0.35968179
0.026029751 -0.094345123 0.35926139
0.026498592 -0.094361834 0.35899183
0.02693624 -0.094375856 0.3587054
0.027670076 -0.094093159 0.358163
0.028088668 -0.094101757 0.35787141
0.028826812 -0.093833379 0.35728085
0.029219765 -0.093835719 0.35697737
0.029975275 -0.093578935 0.35638502
0.030358329 -0.093574874 0.35608783
0.031139622 -0.09333171 0.3555235
0.031524733 -0.093322016 0.35524309
0.031909637 -0.093308158 0.35496551
0.032709938 -0.093076482 0.3544344
0.033099078 -0.093058854 0.35416797
0.033489611 -0.093039975 0.35390145
0.01009881 -0.092734747 0.35513961
0.010987812 -0.093008623 0.3556104
0.011434695 -0.093002938 0.35584527
0.011877224 -0.092995569 0.3560884
0.012317675 -0.092985727 0.35633639
0.012760564 -0.09297321 0.35658684
0.013623153 -0.093253091 0.35712296
0.014062711 -0.093235582 0.35739917
0.014907842 -0.093525067 0.35793972
0.015361114 -0.09350539 0.3582153
0.016184475 -0.093803942 0.35874191
0.016657613 -0.09378209 0.35900152
0.017152797 -0.093760088 0.35924727
0.017959289 -0.094074607 0.35968161
0.018476536 -0.094055079 0.35988125
0.01901594 -0.094038218 0.36005303
0.019574488 -0.094024569 0.36019242
0.020150635 -0.094012164 0.36032039
0.020857375 -0.094355211 0.36048165
0.021409003 -0.094350927 0.36050835
0.021965507 -0.094351426 0.36049849
0.022550136 -0.094009615 0.36038506
0.023138171 -0.094018251 0.36029148
0.023705587 -0.094030783 0.36015397
0.024250835 -0.094044209 0.35999012
0.024773534 -0.094057679 0.35980293
0.025497058 -0.093755916 0.35942358
0.025992593 -0.093772717 0.35917264
0.026464386 -0.093786351 0.35891387
0.027205484 -0.093508303 0.35840812
0.027642448 -0.093518436 0.35811299
0.028063387 -0.093523681 0.35782349
0.028808365 -0.093259946 0.35725421
0.029209642 -0.093259424 0.35696048
0.029974235 -0.093008779 0.35638982
0.030364413 -0.093001902 0.35609871
0.030753547 -0.092991062 0.3558166
0.031544406 -0.092753857 0.35527527
0.031934872 -0.092737459 0.35500264
0.032742172 -0.092514165 0.35448602
0.03313512 -0.092494301 0.35422292
0.033528298 -0.092472531 0.35395852
0.010106449 -0.092163704 0.35512617
0.010998165 -0.092430629 0.35558915
0.01144588 -0.092427455 0.35582334
0.011891177 -0.092422806 0.3560634
0.012335773 -0.092416152 0.35630628
0.012781226 -0.092407018 0.35655475
0.013646982 -0.092680506 0.35707706
0.01409083 -0.092666872 0.35734534
0.014543465 -0.092651866 0.35761613
0.015389903 -0.092934348 0.35815263
0.016214382 -0.09322723 0.35866424
0.016688537 -0.093209021 0.35891864
0.017180135 -0.093189888 0.35916889
0.017987022 -0.093498424 0.35958725
0.018499304 -0.093481392 0.35978985
0.019035723 -0.093466192 0.35996047
0.019590667 -0.09345378 0.36009976
0.02016107 -0.093442425 0.36022738
0.020748708 -0.09343458 0.36031598
0.021347381 -0.09343224 0.3603501
0.021946661 -0.093434475 0.36033714
0.022539703 -0.093439482 0.36028638
0.023121625 -0.093447164 0.36019397
0.023685118 -0.093458176 0.36005983
0.024226055 -0.093470372 0.35989216
0.024746388 -0.093481682 0.35970894
0.025466181 -0.093185246 0.35934696
0.025962777 -0.093198545 0.35910043
0.026435856 -0.093208648 0.35884598
0.027180351 -0.09293545 0.35836452
0.027623408 -0.092942409 0.35807836
0.028045747 -0.092944629 0.35778826
0.028795542 -0.092686594 0.35723656
0.029203461 -0.092682853 0.35694951
0.029978812 -0.092439063 0.35640448
0.030376174 -0.092429556 0.35611886
0.030772226 -0.092415959 0.35584217
0.031569201 -0.092186786 0.35531598
0.031962994 -0.092167921 0.35504475
0.032359291 -0.092147514 0.35478213
0.033174355 -0.091931395 0.3542839
0.033566792 -0.091906473 0.35401595
0.011007401 -0.091851577 0.35557058
0.011455421 -0.091851123 0.35580418
0.011902756 -0.091849469 0.35604227
0.012349067 -0.091845959 0.35628444
0.012797584 -0.091840245 0.35652959
0.013667949 -0.092106804 0.3570362
0.014114861 -0.09209726 0.3572998
0.014569423 -0.092085734 0.35756525
0.015414905 -0.092361324 0.35809663
0.015886141 -0.092347413 0.3583605
0.01671318 -0.092632771 0.35885131
0.017202666 -0.092617162 0.35910407
0.018009588 -0.092918754 0.35950807
0.018518252 -0.092904121 0.3597123
0.019053033 -0.092891455 0.35987833
0.019604879 -0.092880495 0.36001775
0.020171018 -0.092870623 0.36014503
0.020754235 -0.09286385 0.36023206
0.021347633 -0.092861578 0.3602654
0.021942271 -0.092863202 0.36025134
0.022530692 -0.092867583 0.36019918
0.023108099 -0.092874274 0.36010882
0.02366795 -0.092883438 0.35997659
0.024206134 -0.092893653 0.35981086
0.024723887 -0.092902973 0.35962597
0.025441872 -0.09261217 0.35928214
0.025940673 -0.09262234 0.35904533
0.026414961 -0.092629321 0.35879362
0.027160583 -0.092362665 0.35832885
0.027606832 -0.092365772 0.35804671
0.028033981 -0.092364669 0.35776302
0.02879077 -0.092112899 0.35723186
0.029204778 -0.092106439 0.35695094
0.029989773 -0.091870397 0.35642925
0.030393921 -0.091858245 0.35614949
0.030795598 -0.091842063 0.35587606
0.031596728 -0.091620617 0.35536137
0.031993829 -0.091599569 0.35509181
0.032395303 -0.091577113 0.35483399
0.03321356 -0.091368727 0.35434517
0.033609245 -0.091342166 0.35407981
0.01101316 -0.091272093 0.35555798
0.011461818 -0.091274463 0.35579118
0.011910764 -0.091275662 0.35602742
0.012358714 -0.091275454 0.35626915
0.012809177 -0.091273077 0.35651332
0.013684514 -0.091531873 0.35700333
0.014134395 -0.0915263 0.35726243
0.014591203 -0.091518797 0.35752225
0.015436925 -0.091786802 0.35804623
0.015908385 -0.09177696 0.35830778
0.016733879 -0.092053905 0.35879394
0.017221488 -0.092042424 0.35904774
0.01773317 -0.092030793 0.35927901
0.018533656 -0.092323586 0.35964632
0.019067183 -0.092313126 0.35981083
0.019616701 -0.092304282 0.35994935
0.020179778 -0.092296518 0.3600724
0.020758739 -0.092291012 0.36016139
0.021348471 -0.092289113 0.36019892
0.021939347 -0.092290118 0.36018178
0.022523779 -0.092293501 0.36012933
0.023097556 -0.09229897 0.36003849
0.023654489 -0.092305914 0.35990897
0.024191832 -0.092313506 0.35974783
0.024903554 -0.092029244 0.35946131
0.025424875 -0.092038073 0.35923761
0.025924258 -0.092044652 0.3590028
0.02640062 -0.092047967 0.35875487
0.02714837 -0.091789126 0.35830772
0.027597791 -0.09178856 0.35802919
0.028029382 -0.091784276 0.35775054
0.028792772 -0.091539979 0.35723847
0.029211637 -0.091530412 0.35696203
0.030006843 -0.091304198 0.35646516
0.03041715 -0.091288455 0.35618964
0.030824421 -0.091269635 0.35592005
0.031227393 -0.091248162 0.35565484
0.032029334 -0.091033004 0.35514715
0.032436904 -0.091008805 0.35489544
0.032845978 -0.09098275 0.3546479
0.011015655 -0.090692334 0.35555199
0.011465885 -0.090697251 0.35578263
0.011915948 -0.090701506 0.35601768
0.012365625 -0.090704583 0.35625908
0.012818043 -0.090705536 0.35650072
0.013696308 -0.090956055 0.35697949
0.014149063 -0.090954587 0.35723382
0.014606596 -0.090950795 0.35749379
0.015454963 -0.091210693 0.35800445
0.01592459 -0.091204941 0.35827053
0.016748721 -0.091472931 0.35875136
0.017234715 -0.091465309 0.35900769
0.01774586 -0.091457762 0.35923839
0.01854657 -0.091739334 0.35959098
0.019077633 -0.091731749 0.35975924
0.019625647 -0.091725163 0.35989684
0.020186262 -0.091719434 0.36001953
0.020761788 -0.091715135 0.36011001
0.021348648 -0.09171351 0.3601529
0.021936836 -0.091714367 0.36013407
0.022519054 -0.091716833 0.36008045
0.023091024 -0.091720618 0.35999286
0.023646656 -0.091725484 0.35986608
0.024182279 -0.091730647 0.35970378
0.024891045 -0.091456853 0.35942888
0.02541421 -0.09146256 0.35921133
0.025913905 -0.091465719 0.35897502
0.026670199 -0.091214918 0.35857889
0.027142989 -0.091215394 0.35830083
0.027595146 -0.091211297 0.35802418
0.02803047 -0.091203533 0.35774848
0.028801013 -0.090968162 0.35725686
0.029225601 -0.090955213 0.35698572
0.030028624 -0.090738259 0.35650814
0.030446438 -0.090720609 0.35624039
0.030857725 -0.09069889 0.3559728
0.031263404 -0.090675138 0.35570782
0.032071326 -0.090468824 0.35521397
0.032480333 -0.09044224 0.3549611
0.032890547 -0.090414621 0.35471362
0.011013116 -0.090112463 0.35555458
0.011466081 -0.090120219 0.35578144
0.011918984 -0.09012723 0.35601193
0.012368615 -0.090133704 0.35625517
0.01282149 -0.090138711 0.35649896
0.013703302 -0.090379655 0.35696507
0.014158381 -0.090382151 0.35721582
0.014616697 -0.090382777 0.35747534
0.015465329 -0.090633295 0.35798019
0.015935214 -0.090631887 0.35824659
0.016758632 -0.090891272 0.35872203
0.017245132 -0.090886816 0.35897589
0.017755589 -0.090882272 0.35920665
0.01855533 -0.091152899 0.35955215
0.019084789 -0.091148272 0.35972372
0.019630959 -0.091143943 0.35986337
0.02018993 -0.091139868 0.35998929
0.020763932 -0.091137081 0.36007839
0.021348853 -0.091135934 0.36011943
0.021935623 -0.091136672 0.36010748
0.022516031 -0.091138229 0.36004937
0.023087317 -0.091140404 0.35996503
0.023641769 -0.091143169 0.35983747
0.024175677 -0.091146 0.35967496
0.02488425 -0.090884365 0.35941333
0.025408547 -0.090886459 0.35919741
0.025908753 -0.090886176 0.3589606
0.026666163 -0.090646148 0.35857964
0.027143881 -0.090642549 0.35830855
0.0275994 -0.090634435 0.35803348
0.028040864 -0.090623148 0.35776433
0.028819107 -0.090398014 0.35729393
0.02924734 -0.090381682 0.35702386
0.02967204 -0.090362452 0.35676405
0.03047723 -0.090153404 0.35629407
0.030893525 -0.090129822 0.35603085
0.031303681 -0.09010385 0.35576853
0.032115124 -0.089905925 0.35528457
0.032526799 -0.089877523 0.35503256
0.032939181 -0.089848131 0.35478652
0.011005886 -0.089533284 0.35556626
0.011460465 -0.089543551 0.355791
0.011915622 -0.089553311 0.35601851
0.012365428 -0.089562878 0.35626233
0.012820578 -0.08957123 0.35650298
0.013704382 -0.08980304 0.35696256
0.014159868 -0.089809619 0.35721424
0.01461975 -0.089814313 0.3574712
0.015471241 -0.090055302 0.35796613
0.01593985 -0.090057962 0.35823646
0.016765136 -0.090307698 0.3587018
0.017252341 -0.090307347 0.35895354
0.017761897 -0.0903062 0.35918614
0.018562146 -0.090566859 0.35952654
0.019087786 -0.090563759 0.359705
0.019634109 -0.09056136 0.35984462
0.020191642 -0.090559132 0.35997534
0.020764994 -0.090557821 0.36006418
0.021348944 -0.09055727 0.36010316
0.021934884 -0.090557657 0.3600955
0.022514684 -0.090558365 0.36003572
0.023085622 -0.09055917 0.35995176
0.023641504 -0.09055984 0.35983038
0.024173887 -0.090560108 0.35966629
0.02488203 -0.090310961 0.35941115
0.025407633 -0.090309925 0.35919815
0.025910078 -0.090306468 0.35896373
0.026668139 -0.090076528 0.35859337
0.027149895 -0.090069853 0.35832733
0.027609829 -0.090058506 0.3580561
0.028056562 -0.090043671 0.35779196
0.028842028 -0.089829445 0.35734096
0.029273678 -0.089809842 0.35707122
0.02970195 -0.089787751 0.35681269
0.030509397 -0.089587808 0.35635078
0.030929819 -0.089562118 0.35609087
0.031345386 -0.089534335 0.35583347
0.031757101 -0.089504689 0.35557881
0.032576401 -0.089314826 0.35511002
0.03298948 -0.089283451 0.35486308
0.01099441 -0.088954829 0.35558644
0.011449346 -0.088967755 0.35581127
0.011905274 -0.088980295 0.35603878
0.012358262 -0.088992774 0.35627696
0.012814582 -0.08900436 0.35651556
0.013699605 -0.089226954 0.35697219
0.01415571 -0.089237407 0.35722426
0.01461504 -0.089246966 0.35748485
0.015470126 -0.089477271 0.35796851
0.015940111 -0.089484088 0.35823622
0.016766608 -0.089723766 0.35869581
0.017255064 -0.089727342 0.3589448
0.017764 -0.089730054 0.35918066
0.018563958 -0.08997912 0.35951608
0.019090233 -0.089978926 0.359694
0.019635061 -0.089978389 0.35983917
0.020191796 -0.089978054 0.35997418
0.020764964 -0.089977846 0.36006367
0.021348793 -0.089977771 0.36010224
0.021934796 -0.089977838 0.3600938
0.022514844 -0.089978032 0.36003771
0.023085946 -0.089977831 0.35995376
0.023643153 -0.089977242 0.35983482
0.024176197 -0.089974813 0.35967296
0.024883654 -0.089738429 0.35942468
0.025411183 -0.089734234 0.35921222
0.025917158 -0.089727439 0.35898307
0.026675446 -0.089509033 0.35862207
0.027161509 -0.089498855 0.35835859
0.027626673 -0.089484125 0.35809311
0.028077254 -0.089466296 0.35783073
0.028866589 -0.089262389 0.35739246
0.029304253 -0.08924029 0.35712782
0.029734813 -0.089215197 0.35686848
0.03054571 -0.089024186 0.35641477
0.030969311 -0.088996142 0.356157
0.031390958 -0.088967122 0.35590589
0.031806186 -0.088935904 0.35565329
0.032626033 -0.088753372 0.3551887
0.033041108 -0.088720426 0.35494235
0.010976959 -0.088377438 0.355618
0.011433203 -0.0883931 0.35584143
0.011890347 -0.088408403 0.3560681
0.012345132 -0.088423677 0.35630304
0.012802278 -0.088438906 0.35654005
0.013688626 -0.088651933 0.35699493
0.014146474 -0.088666148 0.35724473
0.014605779 -0.088680051 0.35750774
0.015463726 -0.088899821 0.35798362
0.015934836 -0.088911004 0.35825077
0.016763071 -0.089139931 0.35870302
0.017252505 -0.089147545 0.35895231
0.017761482 -0.089154087 0.35919079
0.018290034 -0.089159377 0.35942435
0.01908914 -0.089393131 0.35969678
0.019633109 -0.089395329 0.35984945
0.020190762 -0.089397006 0.35998237
0.020764431 -0.089397959 0.36006889
0.021348415 -0.089398675 0.36011469
0.021935049 -0.089398578 0.36010501
0.022516102 -0.089398041 0.36005083
0.023087928 -0.089396663 0.35996813
0.023646276 -0.089394212 0.35985011
0.024182729 -0.089389719 0.35969272
0.024888922 -0.089166425 0.35945088
0.025418339 -0.089159116 0.3592391
0.02592607 -0.089149281 0.35900813
0.026414648 -0.089136869 0.35877129
0.027177254 -0.088928491 0.35840124
0.027647171 -0.088911131 0.35813901
0.028101631 -0.088890761 0.35787842
0.028894467 -0.088697009 0.35745132
0.029336687 -0.088672154 0.35718882
0.029770112 -0.088644549 0.3569299
0.030198716 -0.088616095 0.35667896
0.031012481 -0.088432446 0.35623008
0.03143758 -0.088401563 0.35598156
0.031856392 -0.088369071 0.35573107
0.032272112 -0.088334493 0.35548249
0.033093132 -0.088158876 0.35502306
0.010493913 -0.087782755 0.35544351
0.010953395 -0.087801695 0.35566178
0.011410831 -0.087820157 0.35588399
0.011869568 -0.087838337 0.35610887
0.012326422 -0.087856822 0.35634029
0.012784536 -0.0878755 0.35657549
0.013672074 -0.088078454 0.35702938
0.014130598 -0.088096581 0.35727936
0.014591717 -0.088113852 0.35754147
0.015451585 -0.088323794 0.35801277
0.015924556 -0.088339306 0.35827935
0.016754925 -0.088557139 0.35872364
0.017245784 -0.088568531 0.35897315
0.017755045 -0.088579074 0.35921466
0.018284829 -0.088588402 0.35944957
0.019085066 -0.088808469 0.35971582
0.019629339 -0.08881297 0.35987103
0.020188356 -0.088816494 0.3600024
0.020762788 -0.088818803 0.36009187
0.021348098 -0.08882013 0.36013636
0.021935679 -0.088819906 0.36012986
0.022518413 -0.088818826 0.36007881
0.023091411 -0.088816278 0.35999507
0.023650492 -0.088812269 0.35987484
0.024191674 -0.088805959 0.35972324
0.024897175 -0.088594899 0.3594895
0.025429744 -0.088585719 0.35928029
0.025939815 -0.088572681 0.35904801
0.026431488 -0.08855734 0.3588129
0.027196845 -0.088360503 0.358455
0.02767203 -0.088340379 0.35819608
0.028129203 -0.088316791 0.35793439
0.028575549 -0.08829093 0.35767868
0.029370587 -0.088105507 0.35725361
0.029806312 -0.088075578 0.35699403
0.030238677 -0.088045403 0.35674578
0.031056413 -0.087869942 0.35630512
0.031483077 -0.087837234 0.3560566
0.031906776 -0.08780349 0.35581106
0.032325123 -0.087767802 0.35556388
0.033144545 -0.087598279 0.35510358
0.010465436 -0.087206803 0.35549703
0.010923822 -0.087228231 0.35571748
0.011382534 -0.08724948 0.35593873
0.0118433 -0.087270305 0.35616031
0.012301176 -0.087292105 0.35639036
0.012761047 -0.087314032 0.35662299
0.013651291 -0.087506734 0.35707259
0.014109189 -0.087528512 0.35732558
0.014572814 -0.087549657 0.35758725
0.015433756 -0.087749802 0.35805601
0.015908163 -0.087769449 0.35832396
0.016741952 -0.087975658 0.35875896
0.017234549 -0.087991066 0.35900852
0.017744185 -0.088005841 0.35925448
0.018275993 -0.088018969 0.35948798
0.01907701 -0.088224776 0.35975239
0.019623183 -0.088231653 0.35990748
0.020184156 -0.088237196 0.36003715
0.020759823 -0.088241205 0.36013252
0.02134729 -0.088242911 0.3601729
0.021936785 -0.088242583 0.36016491
0.022521792 -0.088240914 0.36011893
0.023096146 -0.088237152 0.36003301
0.023657298 -0.088231519 0.35991171
0.024201881 -0.088223644 0.3597635
0.02472616 -0.088212661 0.35958788
0.02544344 -0.088013761 0.35932982
0.025958389 -0.08799836 0.35910368
0.026453411 -0.087980025 0.35886911
0.027218873 -0.087793782 0.35851464
0.027699459 -0.087771475 0.35826036
0.028159574 -0.087745182 0.35799745
0.028608983 -0.087717295 0.35774165
0.02940633 -0.087540127 0.3573221
0.029845625 -0.087508574 0.35706469
0.030281104 -0.08747685 0.35681748
0.03109958 -0.087308086 0.35637954
0.031529184 -0.087274276 0.35613367
0.031956796 -0.087239563 0.35589167
0.032377176 -0.087202877 0.35564554
0.032794125 -0.087164782 0.35539982
0.010433153 -0.08663208 0.35555834
0.010890877 -0.086656854 0.35578004
0.011350404 -0.086681038 0.35600105
0.011812233 -0.086704358 0.35622099
0.012272245 -0.086728454 0.35644656
0.012733268 -0.086754441 0.35667819
0.013624902 -0.086937532 0.35712752
0.014084512 -0.086962618 0.35737935
0.014549837 -0.086987711 0.35764027
0.015412401 -0.087177642 0.35810798
0.015886554 -0.087201856 0.35838237
0.016724583 -0.087396577 0.3588078
0.017218193 -0.087416075 0.35906076
0.017730413 -0.087434702 0.35930672
0.018534824 -0.087631188 0.3596209
0.019068588 -0.087642051 0.35979107
0.019616216 -0.087651819 0.35994992
0.020178851 -0.087659679 0.36008182
0.020757675 -0.087664604 0.36017093
0.02134615 -0.087666772 0.36021042
0.021938233 -0.087666951 0.36020899
0.022525173 -0.087664634 0.36016575
0.023101682 -0.087659471 0.36007598
0.023665478 -0.087652266 0.35995767
0.024212707 -0.087642744 0.35981053
0.024741648 -0.087630734 0.35963902
0.025458565 -0.087442324 0.35938701
0.025977261 -0.087425157 0.35916233
0.026476398 -0.087404951 0.35892957
0.026957078 -0.087381557 0.35868919
0.027726294 -0.087203361 0.35832369
0.028191904 -0.087175466 0.35806611
0.028645582 -0.087145768 0.3578127
0.029442318 -0.086975284 0.35739177
0.029885259 -0.086942665 0.35713682
0.030322958 -0.086909436 0.35688984
0.030755525 -0.086875416 0.3566466
0.031575087 -0.086712033 0.35621095
0.032006152 -0.086676762 0.35597223
0.03243003 -0.086639404 0.35572931
0.032846715 -0.086600088 0.3554818
0.010396444 -0.086060748 0.35562789
0.010854042 -0.086088285 0.35585067
0.011314634 -0.086115174 0.35607073
0.011777995 -0.086141087 0.35628796
0.012239415 -0.086168066 0.35651082
0.013136346 -0.08634235 0.35694724
0.013595323 -0.086370133 0.35718906
0.014055711 -0.086398512 0.35744253
0.014924349 -0.086579464 0.35789707
0.01538793 -0.08660771 0.35816756
0.016223548 -0.086795688 0.35861164
0.016703982 -0.086820155 0.35886636
0.017200638 -0.086842827 0.35911727
0.017715119 -0.086865008 0.35936379
0.018522752 -0.087048516 0.35967165
0.019057747 -0.087061994 0.35984451
0.019607535 -0.087074295 0.36000264
0.020172579 -0.087084286 0.36013639
0.020754188 -0.087090209 0.36022091
0.021412604 -0.087268949 0.36025229
0.021965036 -0.087267742 0.36024559
0.022528792 -0.087089851 0.36021352
0.023108436 -0.087083928 0.36013019
0.023674343 -0.087074824 0.36000979
0.024223777 -0.087063469 0.35986122
0.024757221 -0.087049775 0.35969508
0.025474675 -0.086872905 0.35944507
0.025996592 -0.08685337 0.35922408
0.02650084 -0.086831823 0.35899606
0.026984613 -0.086806677 0.35875559
0.027754938 -0.086636446 0.35839367
0.02822463 -0.086607017 0.35813719
0.02867935 -0.086575352 0.35788012
0.029480113 -0.086412229 0.35746649
0.029925764 -0.08637803 0.35721141
0.030364288 -0.086343095 0.35696238
0.030800428 -0.086307898 0.35672158
0.031620197 -0.086150452 0.35628724
0.032052394 -0.086114109 0.35604849
0.032478396 -0.086076245 0.35580671
0.032893628 -0.086035684 0.35555547
0.010357973 -0.085491642 0.35570166
0.010815526 -0.085522167 0.35592499
0.011277399 -0.085551456 0.35614306
0.011740893 -0.085580625 0.35636044
0.012202998 -0.085610658 0.35658273
0.013102467 -0.085774593 0.357016
0.013562183 -0.085805364 0.35725808
0.014024069 -0.085837454 0.35751322
0.014895227 -0.086008541 0.35796362
0.015361531 -0.086039357 0.3582322
0.016200835 -0.086217441 0.3586719
0.016682135 -0.086245582 0.3589296
0.01718181 -0.086271845 0.35917825
0.017698357 -0.086298168 0.35942578
0.018508323 -0.086468063 0.35973179
0.019045962 -0.086484365 0.35990456
0.019597793 -0.086499147 0.36006409
0.020166308 -0.086510614 0.36019278
0.020865362 -0.086678021 0.36028689
0.021413894 -0.086679585 0.36030734
0.021966405 -0.086680464 0.36029714
0.022518169 -0.086677596 0.36026314
0.023115389 -0.086510055 0.36019039
0.023683913 -0.086499169 0.3600665
0.024235012 -0.086485639 0.35991263
0.024772225 -0.086470522 0.35975167
0.025285328 -0.086452119 0.3595562
0.026015734 -0.086282693 0.35928655
0.02652473 -0.086259849 0.359063
0.027012995 -0.086233296 0.3588253
0.027782502 -0.086069591 0.3584621
0.028256485 -0.086039133 0.35820732
0.028715229 -0.086006597 0.3579528
0.029164387 -0.085973002 0.35770231
0.029965203 -0.085813686 0.35728556
0.030404363 -0.085777462 0.35703367
0.030843072 -0.085741781 0.35679394
0.031663883 -0.085588478 0.35636115
0.032095011 -0.085551076 0.3561193
0.03252206 -0.085512623 0.35587722
0.032938879 -0.085471541 0.35562688
0.010317103 -0.084925137 0.35578007
0.01077481 -0.084958486 0.3560037
0.011237339 -0.084990405 0.35622078
0.011700864 -0.085022397 0.35643783
0.012164348 -0.085054561 0.35665914
0.013066391 -0.085209168 0.35708934
0.013526813 -0.085243113 0.35733223
0.013990333 -0.085278645 0.35758907
0.014864246 -0.085439801 0.35803509
0.015334914 -0.085473247 0.35829613
0.016177539 -0.085641511 0.35873502
0.016659811 -0.085673302 0.35899517
0.017161688 -0.08570303 0.35924393
0.01797564 -0.085867591 0.35959241
0.018492166 -0.085891001 0.35980061
0.019032732 -0.085909531 0.35997188
0.01958785 -0.085926279 0.36012939
0.020159284 -0.085939378 0.3602562
0.020862343 -0.086091861 0.36034483
0.021412365 -0.086094312 0.36036804
0.021968545 -0.08609356 0.36035523
0.022524731 -0.086090274 0.36032563
0.023062281 -0.086083174 0.36025214
0.023694238 -0.085925288 0.36012718
0.024247671 -0.085909821 0.3599728
0.024787156 -0.085893311 0.35981047
0.025305113 -0.085872598 0.35962057
0.026036648 -0.085714288 0.35935289
0.026548751 -0.085689224 0.3591319
0.027040169 -0.085661069 0.35889393
0.02751383 -0.085630707 0.35864949
0.028287942 -0.085471563 0.35827827
0.028750706 -0.085438706 0.35802576
0.029201787 -0.085404061 0.35777438
0.030001968 -0.085248552 0.35735556
0.030444218 -0.085212275 0.35710526
0.030883854 -0.085175864 0.35686409
0.031705618 -0.085025936 0.35643208
0.032136679 -0.084988035 0.35618874
0.032564644 -0.084949285 0.35594651
0.032983143 -0.084908061 0.3556968
0.010272791 -0.084361844 0.35586512
0.010732498 -0.084397338 0.35608539
0.01119677 -0.084431522 0.35629994
0.011660505 -0.084465802 0.35651696
0.012563841 -0.084611595 0.35694134
0.013025641 -0.084646866 0.3571727
0.01348814 -0.084683001 0.35741344
0.014367106 -0.084836707 0.35785604
0.014830895 -0.084873773 0.35811242
0.015303659 -0.084909938 0.35837182
0.016150951 -0.085068546 0.35880619
0.016635364 -0.085103698 0.3590672
0.017138891 -0.085136749 0.35931712
0.017955892 -0.085289724 0.35966358
0.018475754 -0.085316077 0.35987091
0.019018574 -0.085337304 0.36004564
0.01957771 -0.085355617 0.36019993
0.020152247 -0.085369214 0.36032301
0.020859102 -0.085507289 0.36041006
0.021411834 -0.085510492 0.36043492
0.021969909 -0.08550936 0.36042011
0.022528894 -0.085505709 0.36039025
0.02307109 -0.085498586 0.36031336
0.023705125 -0.085353188 0.36019358
0.024261121 -0.085335828 0.36003679
0.024804352 -0.085318163 0.35987857
0.025326043 -0.085295454 0.35968882
0.026055735 -0.085145235 0.35941318
0.026570445 -0.085118592 0.35919496
0.027065177 -0.08508943 0.3589581
0.027540736 -0.08505775 0.35871276
0.028319154 -0.084904686 0.35834929
0.028786123 -0.084871463 0.35809985
0.029237963 -0.084835984 0.35784557
0.03004016 -0.084684059 0.35742897
0.030484075 -0.084647506 0.35717759
0.03092275 -0.084610239 0.35693207
0.031745426 -0.084462732 0.35650066
0.032176223 -0.084424429 0.35625502
0.03260437 -0.084385522 0.35601169
0.033024587 -0.084344611 0.35576242
0.010229721 -0.083800256 0.35594782
0.010690344 -0.083838023 0.35616648
0.011155507 -0.083874866 0.35637981
0.012059977 -0.084010921 0.35680011
0.01252067 -0.084049322 0.35702771
0.012984238 -0.084087193 0.35725793
0.013448526 -0.084126465 0.35749733
0.014330693 -0.084270082 0.35793641
0.014796852 -0.08431004 0.3581917
0.01565001 -0.084459238 0.35862502
0.016122365 -0.084498167 0.35888305
0.016609862 -0.084536463 0.35914251
0.01711485 -0.084572606 0.35939607
0.01793527 -0.084714636 0.35973889
0.018460048 -0.084742911 0.3599405
0.01900482 -0.084766828 0.36011901
0.019567862 -0.084786579 0.36027175
0.020304194 -0.084914692 0.36041215
0.020854894 -0.084924482 0.3604728
0.021412114 -0.084928863 0.36050311
0.021972446 -0.084926732 0.36048925
0.022532316 -0.084923409 0.36045223
0.023079988 -0.084914662 0.36038041
0.023716856 -0.084782906 0.36026248
0.024276061 -0.084764168 0.36010793
0.024820754 -0.084744252 0.35994533
0.025346834 -0.084720746 0.35975868
0.025854835 -0.084694155 0.35955516
0.026592791 -0.084549554 0.35925981
0.027090276 -0.084518656 0.35902333
0.027569933 -0.084486187 0.35878214
0.028347988 -0.084337458 0.35841635
0.028819794 -0.084304415 0.35817111
0.029274173 -0.084268227 0.35791719
0.02972086 -0.08423166 0.35766938
0.030522456 -0.084082417 0.35724762
0.030961528 -0.084044769 0.35700035
0.031399552 -0.084007189 0.35676193
0.032213666 -0.083860755 0.35631827
0.032640588 -0.083820961 0.3560715
0.010186487 -0.083240636 0.35603064
0.010648352 -0.083280407 0.35624695
0.011112407 -0.083320104 0.35646257
0.012014953 -0.083448499 0.35688865
0.012477514 -0.083489284 0.35711452
0.012941724 -0.083530247 0.35734513
0.01382931 -0.08366368 0.35777617
0.014291515 -0.083706588 0.3580232
0.014759738 -0.083750017 0.35827726
0.015615527 -0.083888605 0.35870972
0.016091159 -0.083931088 0.3589673
0.016582476 -0.083972126 0.35922399
0.017406907 -0.084107503 0.35959417
0.017916005 -0.084141441 0.35980994
0.018444348 -0.084171683 0.36001003
0.018990768 -0.084198743 0.36019471
0.019557925 -0.08422 0.36034268
0.020296577 -0.084332585 0.3604773
0.020850858 -0.084343038 0.36053848
0.021411486 -0.084347315 0.36056644
0.021974673 -0.084345855 0.36055854
0.022535652 -0.084341511 0.36051467
0.023088777 -0.084332563 0.36044732
0.023727462 -0.084212817 0.3603217
0.024289818 -0.084193267 0.3601743
0.024835523 -0.08417099 0.36000603
0.025366744 -0.084147193 0.35982728
0.025877519 -0.084119372 0.35962665
0.026615974 -0.083981417 0.35932559
0.027116124 -0.083949052 0.35909089
0.027597193 -0.083914816 0.35884789
0.028067129 -0.083880499 0.3586092
0.02884949 -0.083736658 0.35823363
0.029306484 -0.08369986 0.35798162
0.02975492 -0.083662935 0.35773432
0.030558988 -0.083517186 0.35731515
0.030998029 -0.083478965 0.35706499
0.031435221 -0.08344049 0.35682297
0.032249615 -0.083296627 0.35637856
0.032675467 -0.083256133 0.35612929
0.01014294 -0.082683027 0.35611361
0.010606143 -0.082725041 0.35632765
0.011506649 -0.082845613 0.35675788
0.011968973 -0.082888894 0.35697958
0.012434103 -0.082931548 0.35720176
0.012898988 -0.082975648 0.3574315
0.01378778 -0.083099708 0.35786512
0.014250919 -0.083146155 0.35811326
0.015108093 -0.083275855 0.35855436
0.015578139 -0.083321974 0.35880253
0.016059887 -0.083366334 0.35905212
0.016554523 -0.083410837 0.35930693
0.017382361 -0.083533861 0.35967377
0.017895365 -0.083570912 0.3598879
0.018427487 -0.083603211 0.36008477
0.01897723 -0.083632268 0.36026755
0.019737151 -0.083737642 0.36045671
0.020287588 -0.083752908 0.36054671
0.020847272 -0.083763599 0.36060414
0.021410966 -0.08376848 0.36063263
0.021976832 -0.083767146 0.36062521
0.022538761 -0.08376161 0.36057854
0.023095731 -0.083752498 0.36050546
0.02364062 -0.083738014 0.36040395
0.024303125 -0.083623543 0.36023667
0.024851158 -0.083599381 0.36006963
0.025384594 -0.08357387 0.35989156
0.025897939 -0.08354447 0.3596912
0.02663929 -0.083414637 0.35939246
0.027141571 -0.083380222 0.35915738
0.027624831 -0.083344474 0.35891432
0.028096437 -0.083308481 0.35867554
0.028878676 -0.083169475 0.35829464
0.029337415 -0.083131664 0.35804331
0.029786484 -0.08309342 0.35779509
0.030593969 -0.082952537 0.35738036
0.031033484 -0.082913421 0.35712826
0.031469159 -0.082873523 0.35688153
0.032281552 -0.082732387 0.35643256
0.032707792 -0.082691163 0.35618266
0.010096876 -0.082128197 0.35620078
0.010559198 -0.082172975 0.35641682
0.011459094 -0.082286119 0.35685086
0.011922834 -0.082331456 0.3570708
0.012387284 -0.082377434 0.35729539
0.013278602 -0.08249189 0.35772708
0.013743117 -0.082539521 0.35796034
0.014208383 -0.082588695 0.35820785
0.015067774 -0.082709037 0.35864916
0.015541105 -0.082758017 0.3588962
0.016027894 -0.082804359 0.35913828
0.016524548 -0.082853362 0.35939586
0.01735544 -0.082964793 0.35976192
0.017873621 -0.083003342 0.3599706
0.018409377 -0.083037935 0.36016548
0.018963981 -0.083068311 0.36034349
0.019726293 -0.083160259 0.36052915
0.020279076 -0.083176829 0.36061674
0.020843433 -0.083186969 0.36067292
0.021410406 -0.083192095 0.36070138
0.021979028 -0.083191104 0.36069399
0.022543447 -0.083184071 0.36064312
0.02310241 -0.083173633 0.36056668
0.023652034 -0.083158307 0.36046854
0.024317732 -0.083056189 0.36030671
0.024867382 -0.083029501 0.36013541
0.025402283 -0.083001763 0.35995543
0.025918694 -0.082970783 0.35975665
0.026662266 -0.082848914 0.35945541
0.027166629 -0.082812399 0.3592222
0.027653826 -0.082775593 0.35898414
0.028125497 -0.082737543 0.35874155
0.028907575 -0.082603462 0.3583549
0.029366992 -0.082563736 0.3581022
0.029818228 -0.082524478 0.35785624
0.030627009 -0.082388647 0.35744131
0.031068591 -0.082348332 0.35719118
0.031502988 -0.082306892 0.35694042
0.031933583 -0.082264796 0.35669437
0.032739379 -0.082126722 0.35623479
0.010049067 -0.081575781 0.35629109
0.010951032 -0.081680283 0.35672256
0.011412461 -0.081728294 0.35694233
0.011875725 -0.081776701 0.35716334
0.012338399 -0.081826389 0.35739204
0.013228642 -0.081933282 0.35783049
0.01369493 -0.081983365 0.35806322
0.014560437 -0.082093671 0.35850349
0.015026224 -0.082146034 0.35874805
0.015502968 -0.082197346 0.35899261
0.015992528 -0.082246877 0.3592343
0.016826302 -0.08235281 0.35962844
0.017328035 -0.082398906 0.35985401
0.017849913 -0.082439855 0.36006188
0.018390566 -0.08247555 0.36025041
0.019171353 -0.082562372 0.36048332
0.019714346 -0.082586817 0.36060765
0.020271331 -0.082603261 0.36069393
0.020839879 -0.082613245 0.36074385
0.02140996 -0.082617939 0.36077139
0.02198145 -0.082617328 0.36076376
0.022548638 -0.082609013 0.36071175
0.023110149 -0.082597062 0.36063397
0.023663588 -0.082581572 0.36054051
0.024332199 -0.082490243 0.36037534
0.024884351 -0.08246135 0.36020222
0.025420656 -0.082431354 0.36002114
0.025938982 -0.082398169 0.3598218
0.026685942 -0.082283594 0.35951754
0.027190607 -0.082245149 0.35928282
0.027680535 -0.082206853 0.35904843
0.028153844 -0.082167 0.35880637
0.028936241 -0.082038447 0.35841399
0.029397476 -0.081996828 0.35816243
0.029849771 -0.081956014 0.35791683
0.030297229 -0.081915267 0.35767627
0.031100437 -0.081783473 0.35724851
0.031535767 -0.081740521 0.35699755
0.031965744 -0.081696659 0.35674879
0.032768257 -0.081562407 0.35628232
0.0099987136 -0.081025712 0.35638633
0.010900578 -0.081123605 0.35682058
0.011362759 -0.081174031 0.35703889
0.011825175 -0.081225537 0.35726207
0.012714591 -0.081324771 0.35770631
0.013177338 -0.081377946 0.3579371
0.013645023 -0.081430815 0.35817012
0.014514655 -0.081531629 0.35860854
0.014981554 -0.081587449 0.3588551
0.015461789 -0.081641272 0.35909727
0.015953202 -0.081694655 0.35934162
0.016792238 -0.081789091 0.35973066
0.01729846 -0.081837513 0.35995466
0.017825188 -0.081879891 0.36015829
0.018369844 -0.081917785 0.36034814
0.019153785 -0.081991524 0.36057118
0.019702386 -0.082016252 0.36069253
0.020263659 -0.0820328 0.3607752
0.020834744 -0.082042255 0.36082315
0.021409495 -0.082047477 0.36085019
0.021983948 -0.082045399 0.36083636
0.022555025 -0.082036935 0.3607865
0.023119865 -0.082024015 0.36071035
0.023674577 -0.08200679 0.36061278
0.024347525 -0.081926301 0.36044788
0.024902612 -0.081895515 0.36027369
0.025440719 -0.081863329 0.36009195
0.025961069 -0.081827983 0.3598918
0.026459625 -0.081789672 0.35967103
0.027215958 -0.08168003 0.35934764
0.027706997 -0.081639186 0.35911176
0.028179808 -0.081596322 0.35886618
0.028642835 -0.081554487 0.35862386
0.029429024 -0.081431352 0.35822445
0.029882066 -0.081388637 0.35797873
0.030328747 -0.081345394 0.35773528
0.031132391 -0.081219904 0.35730538
0.031570926 -0.081175677 0.357059
0.032000381 -0.08112976 0.35680753
0.032799892 -0.081000023 0.35633427
0.010392722 -0.080515392 0.35669473
0.010848601 -0.080569796 0.35692072
0.011309183 -0.080623671 0.35714218
0.011770396 -0.080678463 0.35736921
0.01266085 -0.08077012 0.35781568
0.01312458 -0.080826081 0.35804668
0.014001222 -0.080916494 0.35848376
0.01446548 -0.080974236 0.35872152
0.014934422 -0.081032954 0.35896775
0.015418076 -0.081089519 0.35920846
0.015910825 -0.081146538 0.35945782
0.01675467 -0.081231147 0.35984498
0.017266612 -0.081280597 0.36006445
0.017797975 -0.081324793 0.36026728
0.018347839 -0.081363186 0.36045295
0.01913631 -0.081423812 0.36066562
0.019689806 -0.081447989 0.36078033
0.020256441 -0.081464216 0.36085871
0.020830724 -0.08147385 0.3609066
0.021409359 -0.081478059 0.36092699
0.021987299 -0.081475586 0.36091274
0.022561545 -0.081466168 0.36086079
0.023129046 -0.081452511 0.36078665
0.023685761 -0.081433967 0.36068559
0.024228448 -0.081410162 0.36055633
0.024922244 -0.081331834 0.36035195
0.025461955 -0.081297077 0.3601656
0.025983796 -0.081259571 0.35996374
0.026484992 -0.081218868 0.35974324
0.027242614 -0.081116214 0.35941505
0.027734637 -0.081072971 0.35917699
0.02820752 -0.081027441 0.35892865
0.028669145 -0.080982573 0.35868302
0.029460242 -0.080867261 0.35828608
0.029915197 -0.080822602 0.35804224
0.030361885 -0.08077696 0.35779735
0.03116546 -0.080657788 0.3573634
0.031602956 -0.08061102 0.35711509
0.032035816 -0.080563776 0.356868
0.032459505 -0.080514342 0.35661602
0.010338445 -0.079962328 0.35679856
0.010794351 -0.080019206 0.35702395
0.011252814 -0.080076471 0.35725021
0.012144959 -0.080160342 0.35769808
0.012603647 -0.080219798 0.35793146
0.013067878 -0.080278866 0.35816395
0.013943666 -0.080362223 0.35860789
0.014411123 -0.080422379 0.35884422
0.014884484 -0.080483183 0.35908777
0.015369601 -0.080542967 0.35933191
0.016213704 -0.08062391 0.35974503
0.016715327 -0.080677547 0.35996655
0.017234446 -0.080726698 0.36017659
0.017769933 -0.080773197 0.36038202
0.01832594 -0.080811948 0.3605634
0.019118786 -0.080858186 0.36076283
0.019678067 -0.080882363 0.36087132
0.020248806 -0.080899149 0.36094978
0.020827129 -0.080908976 0.36099684
0.021409323 -0.080911897 0.36101121
0.021991311 -0.080908522 0.36099443
0.022568794 -0.080898628 0.36094427
0.023138547 -0.080883026 0.36086529
0.023697758 -0.080862895 0.36076009
0.024245029 -0.080838695 0.36063477
0.024943104 -0.080769733 0.36043134
0.025484202 -0.080732226 0.36024189
0.026008265 -0.080693237 0.36003989
0.02651209 -0.080650762 0.35982063
0.027271114 -0.08055447 0.3594856
0.027763888 -0.080508903 0.35924587
0.028238164 -0.080460832 0.35899714
0.028700074 -0.080412835 0.35874984
0.029157888 -0.080367245 0.3585141
0.029948352 -0.080257893 0.35810533
0.030397097 -0.080210313 0.3578631
0.030839151 -0.080162093 0.35762244
0.031638511 -0.080048978 0.35717696
0.032071415 -0.079998687 0.356929
0.032497659 -0.07994774 0.3566798
0.010282593 -0.079411991 0.35690403
0.010736217 -0.079472356 0.35713342
0.011196165 -0.079531588 0.3573578
0.012084077 -0.07961151 0.35781923
0.012543052 -0.079673924 0.35805351
0.013421807 -0.079749927 0.35850137
0.013881503 -0.079814173 0.35874212
0.014352256 -0.079876088 0.35897657
0.014830774 -0.079938419 0.35921663
0.015318085 -0.080001451 0.35946378
0.016168576 -0.080072403 0.35987219
0.016676595 -0.080126487 0.36008739
0.017200788 -0.080177091 0.3602947
0.017741228 -0.080224432 0.36049795
0.018548878 -0.080267996 0.36074641
0.019100616 -0.08029785 0.36087105
0.019665737 -0.080320969 0.36097202
0.020240672 -0.080338411 0.36105052
0.020823702 -0.08034803 0.36109576
0.021410175 -0.080349572 0.36110494
0.021995731 -0.080344491 0.36108202
0.022576813 -0.080333956 0.36103201
0.023149796 -0.080317356 0.36095238
