# .PCD v0.7 - Point Cloud Data file format
VERSION 0.7
FIELDS x y z rgb
SIZE 4 4 4 4
TYPE F F F F
COUNT 1 1 1 1
WIDTH 1
HEIGHT 472
VIEWPOINT 0 0 0 1 0 0 0
POINTS 472
DATA ascii
0.010054595 -0.13585207 0.37095773 1.8439126e-38
0.010574783 -0.13573411 0.37111893 1.8439126e-38
0.011295223 -0.13624075 0.37192881 1.8439126e-38
0.011817811 -0.13611858 0.37209165 1.8439126e-38
0.012340447 -0.13599208 0.37226138 1.8439126e-38
0.013052841 -0.13647829 0.37309998 1.8439126e-38
0.013584559 -0.13634841 0.37327349 1.8439126e-38
0.014296344 -0.13683632 0.37411001 1.8439126e-38
0.014996549 -0.13732032 0.37495476 1.8439126e-38
0.015552402 -0.13720372 0.37510708 1.8439126e-38
0.016118672 -0.13708788 0.37525699 1.8439126e-38
0.016830802 -0.13761982 0.37604052 1.8439126e-38
0.017415369 -0.13752788 0.37615681 1.8439126e-38
0.018007418 -0.13744465 0.37626088 1.8439126e-38
0.018713959 -0.13804477 0.3769671 1.8439126e-38
0.019314673 -0.13799372 0.37702921 1.8439126e-38
0.019920975 -0.1379561 0.37707469 1.8439126e-38
0.020530589 -0.13793309 0.37710163 1.8439126e-38
0.02114396 -0.13793243 0.37710252 1.8439126e-38
0.021753961 -0.13795507 0.37707561 1.8439126e-38
0.022360664 -0.13799368 0.37702918 1.8439126e-38
0.022961298 -0.13804816 0.37696287 1.8439126e-38
0.02356171 -0.13741389 0.37629738 1.8439126e-38
0.024157489 -0.13750334 0.37618774 1.8439126e-38
0.024741637 -0.13759702 0.37606916 1.8439126e-38
0.025354866 -0.13703322 0.37532496 1.8439126e-38
0.025924832 -0.13714823 0.37517729 1.8439126e-38
0.026477065 -0.13727811 0.37500963 1.8439126e-38
0.027091842 -0.13675427 0.37421888 1.8439126e-38
0.027622085 -0.13689716 0.37402943 1.8439126e-38
0.028229691 -0.13640325 0.37320244 1.8439126e-38
0.028743854 -0.13654602 0.37300989 1.8439126e-38
0.029350709 -0.13606085 0.37217355 1.8439126e-38
0.029854484 -0.13619778 0.37198561 1.8439126e-38
0.030464936 -0.13571167 0.3711552 1.8439126e-38
0.030962845 -0.13584121 0.3709715 1.8439126e-38
0.03158319 -0.13534577 0.370161 1.8439126e-38
0.032070756 -0.13547648 0.36996853 1.8439126e-38
0.0099828914 -0.13482374 0.37004927 1.8439126e-38
0.032063726 -0.13442428 0.36910781 1.8439126e-38
0.032548551 -0.13454807 0.3689152 1.8439126e-38
0.010633203 -0.13430309 0.36993915 1.8439126e-38
0.031916354 -0.13399373 0.36884955 1.8439126e-38
0.01002638 -0.13336542 0.36890519 1.8439126e-38
0.032419648 -0.13303703 0.36784381 1.8439126e-38
0.010663735 -0.13282685 0.36881715 1.8439126e-38
0.03199359 -0.1318159 0.36729047 1.8439126e-38
0.010545244 -0.13175298 0.36800238 1.8439126e-38
0.032344766 -0.13147429 0.36686689 1.8439126e-38
0.010404062 -0.13066375 0.3672336 1.8439126e-38
0.032423351 -0.13035615 0.36615977 1.8439126e-38
0.010515194 -0.13020918 0.36700523 1.8439126e-38
0.032310016 -0.1298798 0.36596096 1.8439126e-38
0.010355567 -0.12910964 0.36627185 1.8439126e-38
0.031729043 -0.12927993 0.36597726 1.8439126e-38
0.010459607 -0.12864216 0.36605978 1.8439126e-38
0.031617999 -0.1288006 0.36578032 1.8439126e-38
0.032298416 -0.12827143 0.36509502 1.8439126e-38
0.010564899 -0.12817338 0.36584634 1.8439126e-38
0.032189064 -0.12778981 0.36490458 1.8439126e-38
0.010380236 -0.12705848 0.36516023 1.8439126e-38
0.032294504 -0.12666477 0.36424029 1.8439126e-38
0.010482153 -0.12658204 0.36495671 1.8439126e-38
0.032642383 -0.12630804 0.36382741 1.8439126e-38
0.010581055 -0.12609789 0.36475918 1.8439126e-38
0.032738131 -0.12519851 0.36314508 1.8439126e-38
0.010382445 -0.12498745 0.36409572 1.8439126e-38
0.032620776 -0.12472374 0.36294603 1.8439126e-38
0.010482082 -0.12449951 0.36390275 1.8439126e-38
0.032504302 -0.12424601 0.36275023 1.8439126e-38
0.010272231 -0.12339962 0.36324599 1.8439126e-38
0.032589007 -0.12315835 0.36204353 1.8439126e-38
0.0099012395 -0.12301377 0.36284581 1.8439126e-38
0.032465689 -0.12268556 0.36183932 1.8439126e-38
0.0096914349 -0.12192715 0.36217654 1.8439126e-38
0.03255517 -0.12160474 0.36113575 1.8439126e-38
0.0097929528 -0.12143228 0.36199573 1.8439126e-38
0.032434914 -0.12112763 0.36093763 1.8439126e-38
0.009895727 -0.12093565 0.36181459 1.8439126e-38
0.032317132 -0.12064555 0.36074379 1.8439126e-38
0.0092368675 -0.1199755 0.36090532 1.8439126e-38
0.0096762683 -0.11985867 0.36114973 1.8439126e-38
0.032426562 -0.11956166 0.36007237 1.8439126e-38
0.0090204943 -0.11891115 0.36022493 1.8439126e-38
0.032315422 -0.11907155 0.35988849 1.8439126e-38
0.0091212476 -0.11840978 0.36005723 1.8439126e-38
0.031765152 -0.11846564 0.35993832 1.8439126e-38
0.0092188325 -0.11790289 0.35989541 1.8439126e-38
0.031902485 -0.1173861 0.35931909 1.8439126e-38
0.0089811226 -0.11684201 0.35924605 1.8439126e-38
0.03180423 -0.1168823 0.3591539 1.8439126e-38
0.0090742391 -0.11633033 0.3590928 1.8439126e-38
0.03170694 -0.11637467 0.3589882 1.8439126e-38
0.0091654956 -0.11581466 0.3589417 1.8439126e-38
0.031613238 -0.11586121 0.35882667 1.8439126e-38
0.0092586884 -0.11529732 0.35878688 1.8439126e-38
0.031802822 -0.11477485 0.35830885 1.8439126e-38
0.0090011023 -0.11424741 0.35817251 1.8439126e-38
0.031723838 -0.11425064 0.35817215 1.8439126e-38
0.0086577693 -0.11381511 0.35778254 1.8439126e-38
0.031647697 -0.11372174 0.35803911 1.8439126e-38
0.009176434 -0.11320041 0.35787961 1.8439126e-38
0.031575847 -0.11318711 0.35791206 1.8439126e-38
0.0092612207 -0.1126705 0.35773587 1.8439126e-38
0.031506259 -0.11264752 0.35778901 1.8439126e-38
0.0089705437 -0.11163168 0.35718587 1.8439126e-38
0.031738516 -0.11158594 0.35735324 1.8439126e-38
0.0090499762 -0.11109871 0.35705072 1.8439126e-38
0.031673923 -0.11104751 0.35723951 1.8439126e-38
0.0086830268 -0.11062576 0.35668829 1.8439126e-38
0.031610958 -0.11050399 0.35712865 1.8439126e-38
0.009199216 -0.1100182 0.35679111 1.8439126e-38
0.031988196 -0.11001685 0.35678446 1.8439126e-38
0.0092701865 -0.1094716 0.35666662 1.8439126e-38
0.031923365 -0.10946385 0.35667551 1.8439126e-38
0.0089363307 -0.10845783 0.35620835 1.8439126e-38
0.031860359 -0.10890662 0.35657158 1.8439126e-38
0.0089957397 -0.10790881 0.35610327 1.8439126e-38
0.031795576 -0.10834651 0.35646862 1.8439126e-38
0.0090523902 -0.10735609 0.35600296 1.8439126e-38
0.032063488 -0.10734402 0.35606599 1.8439126e-38
0.032490723 -0.10739131 0.35582495 1.8439126e-38
0.0091061732 -0.10679989 0.35590744 1.8439126e-38
0.032432884 -0.10683168 0.35573253 1.8439126e-38
0.0091557708 -0.10623979 0.35581917 1.8439126e-38
0.032374822 -0.10626852 0.35564214 1.8439126e-38
0.0092027877 -0.10567671 0.35573521 1.8439126e-38
0.03231724 -0.10570406 0.3555553 1.8439126e-38
0.0096940696 -0.10507682 0.35588366 1.8439126e-38
0.032622073 -0.10473821 0.35518226 1.8439126e-38
0.033033483 -0.10477475 0.35492942 1.8439126e-38
0.0097331936 -0.10451093 0.35581464 1.8439126e-38
0.032985814 -0.1042114 0.35485554 1.8439126e-38
0.009764893 -0.10394207 0.35575858 1.8439126e-38
0.032940045 -0.10364592 0.35478589 1.8439126e-38
0.00935644 -0.10299522 0.35543618 1.8439126e-38
0.03326584 -0.10270581 0.35443535 1.8439126e-38
0.0093816705 -0.10242971 0.35539192 1.8439126e-38
0.033229977 -0.10214428 0.35437727 1.8439126e-38
0.0094026476 -0.10186303 0.35535505 1.8439126e-38
0.033198185 -0.10158104 0.35432607 1.8439126e-38
0.0094224792 -0.10129515 0.35532025 1.8439126e-38
0.033171766 -0.10101614 0.35428384 1.8439126e-38
0.009442592 -0.10072726 0.35528445 1.8439126e-38
0.033148512 -0.10045036 0.354247 1.8439126e-38
0.0094610471 -0.10015859 0.35525206 1.8439126e-38
0.033129454 -0.099883415 0.35421717 1.8439126e-38
0.009476197 -0.099589303 0.35522568 1.8439126e-38
0.033114005 -0.099315867 0.35419309 1.8439126e-38
0.0094901798 -0.099019699 0.35520148 1.8439126e-38
0.033099957 -0.098747842 0.35417181 1.8439126e-38
0.0095042419 -0.09844999 0.35517696 1.8439126e-38
0.033093024 -0.098179057 0.3541612 1.8439126e-38
0.0095182844 -0.097880051 0.35515225 1.8439126e-38
0.033085998 -0.097610116 0.35415053 1.8439126e-38
0.0095319264 -0.09730991 0.35512799 1.8439126e-38
0.033082377 -0.097040772 0.35414505 1.8439126e-38
0.0095449463 -0.096739493 0.35510463 1.8439126e-38
0.033085074 -0.096471161 0.35414907 1.8439126e-38
0.033089429 -0.095901683 0.35415566 1.8439126e-38
0.010021155 -0.095585018 0.35528314 1.8439126e-38
0.033098187 -0.095332429 0.35416955 1.8439126e-38
0.010036631 -0.095015362 0.35525605 1.8439126e-38
0.033110399 -0.094763689 0.35418907 1.8439126e-38
0.033507653 -0.09475895 0.35392612 1.8439126e-38
0.010051641 -0.094445243 0.35522875 1.8439126e-38
0.033524416 -0.094187833 0.35395145 1.8439126e-38
0.010067358 -0.093875088 0.35519993 1.8439126e-38
0.033144265 -0.093627885 0.35424316 1.8439126e-38
0.010081308 -0.093304485 0.35517439 1.8439126e-38
0.033166334 -0.093061358 0.35427853 1.8439126e-38
0.010094028 -0.092733741 0.35515115 1.8439126e-38
0.010549406 -0.092727587 0.35537159 1.8439126e-38
0.033189982 -0.092495486 0.35431671 1.8439126e-38
0.010561046 -0.092158578 0.35535175 1.8439126e-38
0.033217173 -0.09193065 0.3543607 1.8439126e-38
0.010570982 -0.091589458 0.35533518 1.8439126e-38
0.032846972 -0.091565005 0.35463881 1.8439126e-38
0.011014547 -0.091277324 0.35554433 1.8439126e-38
0.032881223 -0.090993129 0.35469076 1.8439126e-38
0.011018428 -0.090697348 0.3555336 1.8439126e-38
0.032919273 -0.090422906 0.35474932 1.8439126e-38
0.011017435 -0.090117179 0.35553238 1.8439126e-38
0.032959886 -0.089854471 0.35481244 1.8439126e-38
0.011011423 -0.0895373 0.35554114 1.8439126e-38
0.033001587 -0.089287519 0.35487798 1.8439126e-38
0.011000828 -0.088957712 0.35555878 1.8439126e-38
0.033042811 -0.088721588 0.35494334 1.8439126e-38
0.010985715 -0.088379152 0.35558683 1.8439126e-38
0.032270893 -0.088340476 0.35546976 1.8439126e-38
0.010965392 -0.087801769 0.35562536 1.8439126e-38
0.032315124 -0.087771937 0.35553879 1.8439126e-38
0.010942113 -0.087226056 0.35567018 1.8439126e-38
0.032359187 -0.08720357 0.35560864 1.8439126e-38
0.010914633 -0.086652674 0.35572377 1.8439126e-38
0.032402214 -0.086636797 0.3556779 1.8439126e-38
0.010883125 -0.08608181 0.355786 1.8439126e-38
0.032864224 -0.086033218 0.35549861 1.8439126e-38
0.010383346 -0.085484877 0.35563669 1.8439126e-38
0.032482762 -0.085503958 0.35580909 1.8439126e-38
0.010346334 -0.084916234 0.3557106 1.8439126e-38
0.032521579 -0.084938496 0.3558732 1.8439126e-38
0.010305783 -0.084351078 0.35579157 1.8439126e-38
0.032559115 -0.084373482 0.35593581 1.8439126e-38
0.010264615 -0.083788007 0.35587406 1.8439126e-38
0.032595985 -0.083808944 0.35599783 1.8439126e-38
0.010696967 -0.083264247 0.35616308 1.8439126e-38
0.032633267 -0.083245143 0.35606095 1.8439126e-38
0.01065723 -0.082707979 0.35624415 1.8439126e-38
0.032667425 -0.082680993 0.35611892 1.8439126e-38
0.010614254 -0.082154803 0.35633099 1.8439126e-38
0.032702573 -0.082117781 0.35617819 1.8439126e-38
0.01056671 -0.081605665 0.35642737 1.8439126e-38
0.032736793 -0.081554927 0.35623571 1.8439126e-38
0.010950437 -0.08109653 0.35670927 1.8439126e-38
0.032774515 -0.080993973 0.35629848 1.8439126e-38
0.010898095 -0.080542974 0.35681635 1.8439126e-38
0.032815147 -0.080435231 0.35636652 1.8439126e-38
0.010369626 -0.07994055 0.35672531 1.8439126e-38
0.032859556 -0.079879336 0.35644126 1.8439126e-38
0.010310513 -0.079393663 0.35684368 1.8439126e-38
0.032530524 -0.079379834 0.35673094 1.8439126e-38
0.010250089 -0.078850411 0.35696286 1.8439126e-38
0.032577332 -0.078819089 0.35681102 1.8439126e-38
0.010187109 -0.078311458 0.35708585 1.8439126e-38
0.032627977 -0.078260891 0.35689703 1.8439126e-38
0.010118666 -0.077778399 0.35721695 1.8439126e-38
0.032248721 -0.077767558 0.35723248 1.8439126e-38
0.010931752 -0.077287078 0.35781637 1.8439126e-38
0.032302778 -0.077218927 0.35732272 1.8439126e-38
0.01084906 -0.076763988 0.35797724 1.8439126e-38
0.03199219 -0.07667122 0.35763967 1.8439126e-38
0.010304811 -0.076163955 0.35791522 1.8439126e-38
0.032056697 -0.076120809 0.35775068 1.8439126e-38
0.010218335 -0.075645357 0.35807747 1.8439126e-38
0.032126501 -0.075576372 0.3578698 1.8439126e-38
0.010127792 -0.075131558 0.35824406 1.8439126e-38
0.03219815 -0.075036623 0.35799184 1.8439126e-38
0.010448898 -0.07455276 0.35870215 1.8439126e-38
0.032270465 -0.074500583 0.3581143 1.8439126e-38
0.01035046 -0.074044757 0.35888618 1.8439126e-38
0.032347471 -0.073970921 0.35824361 1.8439126e-38
0.010249344 -0.07354065 0.3590712 1.8439126e-38
0.032074921 -0.073372796 0.35862949 1.8439126e-38
0.010558208 -0.072948441 0.35955992 1.8439126e-38
0.032162461 -0.072845899 0.35877836 1.8439126e-38
0.010453955 -0.072447263 0.35975242 1.8439126e-38
0.032250043 -0.072323732 0.35892725 1.8439126e-38
0.0099040484 -0.071843892 0.35970479 1.8439126e-38
0.032339718 -0.0718069 0.35907924 1.8439126e-38
0.010658427 -0.07133612 0.36043558 1.8439126e-38
0.031652711 -0.071282022 0.35974038 1.8439126e-38
0.010558734 -0.070834465 0.36061832 1.8439126e-38
0.031749733 -0.070772372 0.35990927 1.8439126e-38
0.010007797 -0.070229493 0.36057168 1.8439126e-38
0.032297589 -0.070165478 0.35985422 1.8439126e-38
0.0099061728 -0.069728933 0.36075085 1.8439126e-38
0.032402098 -0.069665954 0.36003298 1.8439126e-38
0.010255201 -0.069336243 0.36116096 1.8439126e-38
0.010157619 -0.068834342 0.3613345 1.8439126e-38
0.032290298 -0.068528377 0.3606835 1.8439126e-38
0.010485357 -0.068193838 0.36179948 1.8439126e-38
0.032402016 -0.068037279 0.36087716 1.8439126e-38
0.010394 -0.067685455 0.36196455 1.8439126e-38
0.032050945 -0.067651927 0.36128017 1.8439126e-38
0.010303875 -0.067176014 0.36212844 1.8439126e-38
0.031835802 -0.066992469 0.3617456 1.8439126e-38
0.010214863 -0.066665895 0.36229166 1.8439126e-38
0.032407388 -0.066395484 0.36172435 1.8439126e-38
0.010548383 -0.066009872 0.36272869 1.8439126e-38
0.032515403 -0.065906897 0.3619158 1.8439126e-38
0.0099998191 -0.065393403 0.36266428 1.8439126e-38
0.032152884 -0.065524377 0.36231142 1.8439126e-38
0.010376725 -0.064983107 0.36304954 1.8439126e-38
0.031936936 -0.064839832 0.36276251 1.8439126e-38
0.010293706 -0.064469382 0.36320555 1.8439126e-38
0.032511532 -0.064241968 0.3627426 1.8439126e-38
0.010206853 -0.063960336 0.36336911 1.8439126e-38
0.03261308 -0.063751608 0.36292782 1.8439126e-38
0.010522515 -0.06329672 0.36382782 1.8439126e-38
0.032239586 -0.063368842 0.363316 1.8439126e-38
0.010433568 -0.062788926 0.36399657 1.8439126e-38
0.032024279 -0.062662743 0.36375782 1.8439126e-38
0.010340752 -0.062287182 0.364173 1.8439126e-38
0.032124355 -0.062172703 0.36394241 1.8439126e-38
0.010245644 -0.061789904 0.36435339 1.8439126e-38
0.032224189 -0.061684042 0.36412707 1.8439126e-38
0.010546222 -0.061113786 0.36483693 1.8439126e-38
0.03232535 -0.061198626 0.36431533 1.8439126e-38
0.010446728 -0.060621079 0.36502603 1.8439126e-38
0.032127213 -0.060489178 0.36478421 1.8439126e-38
0.010344022 -0.060134549 0.36522159 1.8439126e-38
0.032236323 -0.060011085 0.36498603 1.8439126e-38
0.01024008 -0.059652157 0.36541709 1.8439126e-38
0.032346271 -0.059536006 0.36518911 1.8439126e-38
0.010524015 -0.058966342 0.36593416 1.8439126e-38
0.032165989 -0.058827061 0.36569536 1.8439126e-38
0.010415528 -0.058488667 0.36613861 1.8439126e-38
0.032284182 -0.058360536 0.36591196 1.8439126e-38
0.01030672 -0.058014374 0.36634186 1.8439126e-38
0.032402068 -0.057897005 0.36612779 1.8439126e-38
0.010094756 -0.057204228 0.36668605 1.8439126e-38
0.032232221 -0.057179645 0.36666092 1.8439126e-38
0.010469044 -0.056848761 0.36709002 1.8439126e-38
0.032354575 -0.056721356 0.36688167 1.8439126e-38
0.010356788 -0.056382269 0.36729589 1.8439126e-38
0.032476861 -0.056267001 0.36710054 1.8439126e-38
0.010136149 -0.055552881 0.36766526 1.8439126e-38
0.032307848 -0.055529013 0.3676447 1.8439126e-38
0.010505151 -0.055217013 0.36807427 1.8439126e-38
0.032429677 -0.055075608 0.36786103 1.8439126e-38
0.010387341 -0.054762438 0.36828417 1.8439126e-38
0.032554198 -0.054629602 0.36807886 1.8439126e-38
0.010161186 -0.053906929 0.36867991 1.8439126e-38
0.032679413 -0.054189265 0.36829564 1.8439126e-38
0.01052378 -0.05359624 0.36908931 1.8439126e-38
0.032518078 -0.053433612 0.36886546 1.8439126e-38
0.010774229 -0.052863285 0.36970773 1.8439126e-38
0.032647874 -0.053002305 0.36908594 1.8439126e-38
0.010645685 -0.052429643 0.36992845 1.8439126e-38
0.010514564 -0.052005552 0.37015113 1.8439126e-38
0.032633416 -0.051817339 0.36991367 1.8439126e-38
0.010735253 -0.051287457 0.37082851 1.8439126e-38
0.032772701 -0.051408943 0.37014338 1.8439126e-38
0.010595495 -0.050882377 0.37106138 1.8439126e-38
0.032655079 -0.050662957 0.37080875 1.8439126e-38
0.010451084 -0.050492357 0.3712998 1.8439126e-38
0.032315318 -0.050429996 0.37122056 1.8439126e-38
0.010634845 -0.049806409 0.37204313 1.8439126e-38
0.032227676 -0.04971692 0.37194645 1.8439126e-38
0.010482113 -0.04944019 0.37229359 1.8439126e-38
0.032391388 -0.049358666 0.37220001 1.8439126e-38
0.010636734 -0.048781373 0.37308651 1.8439126e-38
0.03233492 -0.0486761 0.37297869 1.8439126e-38
0.010776065 -0.048129998 0.37390563 1.8439126e-38
0.03250993 -0.048346624 0.37324524 1.8439126e-38
0.010614156 -0.047796328 0.3741706 1.8439126e-38
0.032975219 -0.047516618 0.37390244 1.8439126e-38
0.010744246 -0.047148529 0.37500459 1.8439126e-38
0.032957014 -0.046855599 0.37474042 1.8439126e-38
0.010864491 -0.046501119 0.37585163 1.8439126e-38
0.033129744 -0.046542969 0.37500378 1.8439126e-38
0.010707369 -0.04618321 0.3761147 1.8439126e-38
0.033111669 -0.045869831 0.37584132 1.8439126e-38
0.010826201 -0.045528047 0.3769626 1.8439126e-38
0.033096578 -0.045183238 0.37668377 1.8439126e-38
0.010945374 -0.044855431 0.37780407 1.8439126e-38
0.032746896 -0.045057628 0.3770777 1.8439126e-38
0.011335222 -0.044688996 0.37818837 1.8439126e-38
0.033252381 -0.044193063 0.37778422 1.8439126e-38
0.010913509 -0.043867249 0.37890664 1.8439126e-38
0.032889694 -0.044074606 0.37816507 1.8439126e-38
0.011581683 -0.043310728 0.37985748 1.8439126e-38
0.032880753 -0.04339001 0.37901774 1.8439126e-38
0.011436094 -0.043016352 0.38012338 1.8439126e-38
0.033040237 -0.04311154 0.37926638 1.8439126e-38
0.011548024 -0.042332783 0.38097313 1.8439126e-38
0.03304223 -0.042439088 0.38013509 1.8439126e-38
0.011644373 -0.041670136 0.38184988 1.8439126e-38
0.03305896 -0.041786876 0.38102546 1.8439126e-38
0.011497986 -0.041403115 0.38212323 1.8439126e-38
0.032541171 -0.041306574 0.38204366 1.8439126e-38
0.011580143 -0.040768947 0.38302574 1.8439126e-38
0.032033239 -0.040852759 0.38308132 1.8439126e-38
0.032708082 -0.041064598 0.38230526 1.8439126e-38
0.011653077 -0.040150043 0.38394761 1.8439126e-38
0.032634664 -0.040110316 0.38392535 1.8439126e-38
0.01172097 -0.039538231 0.38488108 1.8439126e-38
0.032696906 -0.039540254 0.38489315 1.8439126e-38
0.011570447 -0.039297249 0.38515025 1.8439126e-38
0.032759327 -0.038966563 0.38586313 1.8439126e-38
0.011637234 -0.03868448 0.38608363 1.8439126e-38
0.032820623 -0.038387157 0.38683277 1.8439126e-38
0.011704776 -0.038065162 0.38701791 1.8439126e-38
0.032324433 -0.037966579 0.38789904 1.8439126e-38
0.011773397 -0.037438907 0.3879526 1.8439126e-38
0.032374986 -0.03736268 0.38885626 1.8439126e-38
0.011842296 -0.036808521 0.3888897 1.8439126e-38
0.032547705 -0.03713103 0.38908824 1.8439126e-38
0.011907942 -0.036182243 0.38983411 1.8439126e-38
0.032592285 -0.036507539 0.39003542 1.8439126e-38
0.011757181 -0.035944127 0.39007932 1.8439126e-38
0.032635469 -0.035878561 0.39098299 1.8439126e-38
0.011811562 -0.035342984 0.39103952 1.8439126e-38
0.032686912 -0.035263456 0.39194283 1.8439126e-38
0.011858499 -0.034757275 0.39201263 1.8439126e-38
0.032754831 -0.034682099 0.39292496 1.8439126e-38
0.011898506 -0.034185294 0.39299729 1.8439126e-38
0.032831792 -0.034113079 0.3939186 1.8439126e-38
0.011926925 -0.033641871 0.39400017 1.8439126e-38
0.012501624 -0.033812143 0.39409155 1.8439126e-38
0.012528596 -0.033280171 0.39509749 1.8439126e-38
0.032463625 -0.033266719 0.39604238 1.8439126e-38
0.033104844 -0.033400521 0.39514467 1.8439126e-38
0.012547399 -0.032773726 0.39611644 1.8439126e-38
0.013300986 -0.032609608 0.39699662 1.8439126e-38
0.033147443 -0.03261058 0.39699742 1.8439126e-38
0.012713469 -0.031981301 0.39796585 1.8439126e-38
0.032644715 -0.032052699 0.39896569 1.8439126e-38
0.033275858 -0.032181673 0.39805052 1.8439126e-38
0.012707252 -0.031542845 0.39902201 1.8439126e-38
0.032141626 -0.031491734 0.40093717 1.8439126e-38
0.033376057 -0.03149429 0.39997002 1.8439126e-38
0.01269371 -0.03113186 0.40009257 1.8439126e-38
0.032878034 -0.030939307 0.40194526 1.8439126e-38
0.012682354 -0.030709947 0.40116015 1.8439126e-38
0.013434278 -0.030536253 0.40204591 1.8439126e-38
0.033007197 -0.030532528 0.4030093 1.8439126e-38
0.012820352 -0.029957434 0.40304384 1.8439126e-38
0.032514501 -0.030228263 0.40412155 1.8439126e-38
0.011592953 -0.029226797 0.40397558 1.8439126e-38
0.012209542 -0.029351665 0.40403116 1.8439126e-38
0.031970169 -0.029543087 0.40604985 1.8439126e-38
0.032626651 -0.029763646 0.40517375 1.8439126e-38
0.010986229 -0.028576711 0.40494448 1.8439126e-38
0.011604694 -0.028707765 0.40500328 1.8439126e-38
0.032691173 -0.028910162 0.40702948 1.8439126e-38
0.009767456 -0.027715134 0.40581253 1.8439126e-38
0.010392852 -0.027857766 0.40588146 1.8439126e-38
0.011008456 -0.028016321 0.40595502 1.8439126e-38
0.032790188 -0.028385295 0.40805671 1.8439126e-38
0.0096543292 -0.027528631 0.40603212 1.8439126e-38
0.032887924 -0.027850868 0.40908143 1.8439126e-38
0.0097020762 -0.026843626 0.40698642 1.8439126e-38
0.032975554 -0.027276235 0.41008908 1.8439126e-38
0.033586435 -0.027112545 0.41001865 1.8439126e-38
0.0095887007 -0.026618479 0.40719217 1.8439126e-38
0.010365571 -0.026317604 0.40801686 1.8439126e-38
0.010945966 -0.026568225 0.40812796 1.8439126e-38
0.011692332 -0.026429832 0.40903658 1.8439126e-38
0.012247022 -0.026722541 0.40915942 1.8439126e-38
0.012956917 -0.02671154 0.41012165 1.8439126e-38
0.013665293 -0.026728889 0.41110066 1.8439126e-38
0.014368613 -0.026771536 0.41209176 1.8439126e-38
0.033653885 -0.026467305 0.41099739 1.8439126e-38
0.034266815 -0.026299605 0.41092268 1.8439126e-38
0.0090698693 -0.025585731 0.40798217 1.8439126e-38
0.0096627288 -0.025821643 0.40809298 1.8439126e-38
0.012956899 -0.02617575 0.4111478 1.8439126e-38
0.014355983 -0.026270231 0.41313452 1.8439126e-38
0.015257799 -0.026019635 0.41498274 1.8439126e-38
0.015992254 -0.026008654 0.41595113 1.8439126e-38
0.016723843 -0.025986468 0.41691449 1.8439126e-38
0.030078813 -0.02636216 0.41512963 1.8439126e-38
0.016745664 -0.025427684 0.41793397 1.8439126e-38
0.017327705 -0.025742862 0.41807309 1.8439126e-38
0.018085802 -0.025658006 0.41900933 1.8439126e-38
0.018843811 -0.025507152 0.41991499 1.8439126e-38
0.019483445 -0.02573631 0.42001686 1.8439126e-38
0.020139894 -0.025941346 0.42010468 1.8439126e-38
0.020901838 -0.025634067 0.42094564 1.8439126e-38
0.021572609 -0.025751093 0.42099658 1.8439126e-38
0.022250043 -0.025826016 0.42102927 1.8439126e-38
0.022929689 -0.025853977 0.42104042 1.8439126e-38
0.023611918 -0.025840994 0.42103547 1.8439126e-38
0.024289122 -0.025769047 0.42100438 1.8439126e-38
0.024957905 -0.025643287 0.42094779 1.8439126e-38
0.025617838 -0.025470261 0.42087364 1.8439126e-38
0.02627342 -0.025767826 0.42003012 1.8439126e-38
0.026896745 -0.025482923 0.41990373 1.8439126e-38
0.02757485 -0.025724884 0.41903836 1.8439126e-38
0.028267272 -0.025924131 0.41815281 1.8439126e-38
0.028948922 -0.02605225 0.41723731 1.8439126e-38
0.029520914 -0.025732595 0.41709903 1.8439126e-38
0.030170741 -0.025790339 0.41615108 1.8439126e-38
0.030875953 -0.026165387 0.41435486 1.8439126e-38
0.031417079 -0.025826132 0.41421074 1.8439126e-38
0.032041207 -0.025888918 0.41326126 1.8439126e-38
0.032593682 -0.025575293 0.41313052 1.8439126e-38
0.033260807 -0.025779005 0.41224504 1.8439126e-38
0.03383987 -0.025531853 0.41214263 1.8439126e-38
0.034432497 -0.025306763 0.41204458 1.8439126e-38
